# .PCD v0.7 - Point Cloud Data file format
VERSION 0.7
FIELDS x y z rgb
SIZE 4 4 4 4
TYPE F F F F
COUNT 1 1 1 1
WIDTH 1017
HEIGHT 1
VIEWPOINT 0 0 0 1 0 0 0
POINTS 1017
DATA ascii
2.4656236 0.49631011 0.089703023 nan
2.4676602 0.49206358 0.089024961 nan
2.4727664 0.48838368 0.087288558 nan
2.4737797 0.48392707 0.086963415 nan
2.454325 0.47571388 0.093694746 nan
2.4471512 0.46980092 0.096191943 nan
2.4655609 0.46851182 0.089869201 nan
2.4655507 0.46387875 0.089896858 nan
2.4788439 0.46158805 0.085338354 nan
2.4583662 0.45336449 0.092421412 nan
2.4583557 0.44874451 0.092449069 -3.3819727e+38
2.4593689 0.44429913 0.092124164 -3.3818681e+38
2.4603817 0.43984994 0.091798902 -3.3551793e+38
2.4399047 0.43180925 0.098880887 -3.3151461e+38
2.4398944 0.42722285 0.098908305 -3.3017501e+38
2.4419303 0.42297065 0.098230302 -3.3016465e+38
2.44192 0.41838056 0.09825784 -3.2350291e+38
2.4419096 0.4137904 0.098285258 -3.1818083e+38
2.4429228 0.40936178 0.097959876 -3.1951002e+38
2.4531455 0.40636632 0.094460726 -3.1951515e+38
2.4531353 0.40175566 0.094488382 -3.1818063e+38
2.4500549 0.39667723 0.095573902 -3.1819091e+38
2.4705105 0.39515328 0.088549018 -3.1952543e+38
2.4653833 0.38974991 0.090339839 -3.1951519e+38
2.475606 0.3866201 0.086841285 -3.1818073e+38
2.4581995 0.37944463 0.092863202 -3.1951515e+38
2.458189 0.37482461 0.092890739 -3.2085478e+38
2.4264572 0.36571816 0.1038478 -3.1952555e+38
2.4315631 0.36187026 0.10211247 -3.1952559e+38
2.4325764 0.35743985 0.10178715 -3.1952567e+38
2.4427986 0.35425773 0.098289251 -3.2217888e+38
2.4417646 0.34952849 0.098669231 -3.2616131e+38
2.4397082 0.34466758 0.099401593 -3.2749575e+38
2.4560697 0.34221765 0.09378916 -3.2749573e+38
2.4560592 0.33760139 0.093816817 -3.2750098e+38
2.4550254 0.33285531 0.094196796 -3.301699e+38
2.4550149 0.3282409 0.094224334 -3.3284402e+38
2.4529583 0.32337439 0.094956756 -3.3285444e+38
2.4498782 0.31839114 0.096041679 -3.3151996e+38
2.4467983 0.31341907 0.097126424 -3.3284911e+38
2.4334857 0.30725351 0.10173541 -3.3151988e+38
2.4334755 0.30267829 0.10176271 -3.3019067e+38
2.4477901 0.29973742 0.096856594 -3.3019067e+38
2.4375477 0.29398733 0.10040784 -3.2885623e+38
2.4375374 0.28940466 0.10043526 -3.3285438e+38
2.4365039 0.28471088 0.100815 -3.3418888e+38
2.4405863 0.28056714 0.099432886 -3.341784e+38
2.4405758 0.27597886 0.099460304 -3.3149899e+38
2.4426119 0.27160171 0.098783135 -3.2616648e+38
2.461019 0.26887587 0.092468917 -3.2483735e+38
2.4610085 0.26425031 0.092496574 -3.2218409e+38
2.4609981 0.25962469 0.092524111 -3.1820677e+38
2.4609876 0.2549991 0.092551768 -3.2086527e+38
2.4763248 0.25181669 0.087295353 -3.2617707e+38
2.4763143 0.24716313 0.087323248 -3.2616662e+38
2.4763036 0.24250954 0.087351024 -3.2482169e+38
2.4578762 0.23622489 0.093719006 -3.2082354e+38
2.4578657 0.23160489 0.093746662 -3.1948902e+38
2.4609251 0.22724555 0.092717588 -3.1550138e+38
2.462961 0.22279002 0.092040777 -3.0752611e+38
2.4629505 0.2181607 0.092068434 -3.0752607e+38
2.4649861 0.21369395 0.091391861 -3.0487273e+38
2.4629297 0.20890205 0.092123866 -3.0619672e+38
2.4629192 0.20427275 0.092151523 -3.0884473e+38
2.4629087 0.19964342 0.092179179 -3.0751029e+38
2.461875 0.19494028 0.09255904 -3.0350697e+38
2.4618645 0.19031282 0.092586696 -3.0083292e+38
2.4598079 0.18554516 0.093318582 -3.0083298e+38
2.4597974 0.18092145 0.093346238 -2.9684008e+38
2.4597871 0.17629772 0.093373895 -2.9019909e+38
2.4618227 0.171803 0.092697203 -2.8885946e+38
2.4781818 0.16817755 0.087091684 -2.861906e+38
2.4761252 0.16339874 0.087823808 -2.821873e+38
2.4761147 0.15874515 0.087851584 -2.8218215e+38
2.4781501 0.15420562 0.087175131 -2.8085288e+38
2.4781396 0.14954831 0.087202907 -2.7951838e+38
2.4781291 0.14489099 0.087230802 -2.8084235e+38
2.4781187 0.14023368 0.087258577 -2.8482987e+38
2.4627626 0.13483293 0.092566371 -2.8482993e+38
2.4576364 0.1299651 0.094354033 -2.8615924e+38
2.4473956 0.12488678 0.097901344 -2.8616965e+38
2.4525006 0.12050527 0.096168995 -2.8485598e+38
2.4596515 0.11618932 0.093733072 -2.8885409e+38
2.4586182 0.11152536 0.094112694 -2.9416583e+38
2.4545152 0.10675003 0.095547915 -2.9416587e+38
2.4585972 0.10228164 0.094167888 -2.9815886e+38
2.4381258 0.096967049 0.10123354 -2.9949333e+38
2.4391389 0.092415281 0.10090899 -3.021674e+38
2.4391286 0.087828867 0.10093641 -3.061707e+38
2.4391181 0.083242469 0.10096383 -3.0617581e+38
2.4391079 0.078656062 0.10099113 -3.0617585e+38
2.4390974 0.074069656 0.10101855 -3.0883962e+38
2.4575009 0.069905214 0.094712853 -3.1150329e+38
2.4574904 0.065285221 0.09474051 -3.1549093e+38
2.45748 0.060665227 0.094768047 -3.1682542e+38
2.462585 0.056134455 0.093036652 -3.168203e+38
2.4625745 0.051505134 0.093064308 -3.1815992e+38
2.4809773 0.04712984 0.086759925 -3.2082868e+38
2.4809668 0.042466935 0.086787701 -3.208287e+38
2.4778874 0.037772886 0.087870836 -3.2082874e+38
2.4737852 0.03308152 0.089305818 -3.221632e+38
2.4553614 0.028311994 0.095665038 -3.2349764e+38
2.4553509 0.023695733 0.095692575 -3.2616131e+38
2.4563634 0.019082392 0.095368326 -3.2749575e+38
2.4604449 0.014468471 0.093989074 -3.2884059e+38
2.4604344 0.0098428819 0.094016731 -3.2752171e+38
2.4604239 0.0052172919 0.094044387 -3.2751646e+38
2.4634824 0.00057806261 0.093016922 -3.3017998e+38
2.4634719 -0.0040531233 0.093044579 -3.3552296e+38
2.4634614 -0.0086843092 0.093072236 -3.3285929e+38
2.465497 -0.013335785 0.092396796 -3.3285414e+38
2.4838991 -0.018186891 0.086095154 -3.3284909e+38
2.4859343 -0.022883149 0.085419774 -3.3151986e+38
2.4879694 -0.027586864 0.084744573 -3.3285955e+38
2.4879589 -0.032262832 0.084772468 -3.3686285e+38
2.4879482 -0.036938801 0.084800363 -3.3419917e+38
2.4818003 -0.041486733 0.086937964 -3.3286994e+38
2.480767 -0.046128303 0.087317228 -3.3287517e+38
2.4950769 -0.051142216 0.082423389 -3.3553363e+38
2.491998 -0.055750437 0.083506048 nan
2.4919872 -0.060433865 0.083534062 nan
2.4735646 -0.064565241 0.089889228 nan
2.4735541 -0.069215089 0.089917004 nan
2.496047 -0.074621767 0.08221209 -3.3818677e+38
2.4796705 -0.078732386 0.087863743 -3.3685237e+38
2.4857972 -0.083622232 0.085782766 -3.3685241e+38
2.4888554 -0.08841446 0.084756315 -3.3417838e+38
2.486799 -0.093008563 0.085487068 -3.3284402e+38
2.4867885 -0.09768267 0.085514963 -3.3151473e+38
2.486778 -0.10235677 0.085542977 -3.3019059e+38
2.4877901 -0.10707833 0.085219502 -3.30201e+38
2.4867568 -0.11170498 0.085598767 -3.2622893e+38
2.4826548 -0.1161743 0.087032437 -3.2888736e+38
2.4611647 -0.11972667 0.094439328 -3.3153018e+38
2.4611545 -0.12435412 0.094466984 -3.2485271e+38
2.461144 -0.12898158 0.094494641 -3.2617658e+38
2.4826128 -0.13484085 0.087144017 -3.3018004e+38
2.4785111 -0.13926542 0.08857733 -3.355129e+38
2.4785004 -0.14392459 0.088605106 -3.3951618e+38
2.4825811 -0.14884077 0.087227702 -3.3685762e+38
2.4835935 -0.15357354 0.086904228 -3.3552316e+38
2.4825602 -0.15817404 0.087283492 -3.3153018e+38
2.4784584 -0.16256128 0.088716447 -3.2084957e+38
2.4804933 -0.16736388 0.088041663 -3.1283276e+38
2.4804828 -0.1720268 0.088069439 -3.1016901e+38
2.460017 -0.17518067 0.095122397 -3.1017406e+38
2.4610291 -0.17988358 0.094798863 -3.1016889e+38
2.4630642 -0.18466941 0.0941239 -3.141567e+38
2.4783952 -0.19051634 0.088883579 -3.1816527e+38
2.4794075 -0.19525842 0.088560045 -3.2350829e+38
2.4804196 -0.20000423 0.08823669 -3.3018043e+38
2.4804091 -0.20466714 0.088264585 -3.248478e+38
2.4844897 -0.2096841 0.086887777 -3.2217892e+38
2.489593 -0.21480638 0.085159838 -3.208393e+38
2.4875367 -0.21930158 0.085890174 -3.1817564e+38
2.484458 -0.22369522 0.086971581 -3.168412e+38
2.4926298 -0.22913338 0.084190369 -3.1417747e+38
2.4987555 -0.23440574 0.082111776 -3.1284292e+38
2.5222676 -0.24139553 0.074064434 -3.1150848e+38
2.5202112 -0.2459318 0.074795067 -3.0750518e+38
2.5058825 -0.2492193 0.079738379 -3.0617074e+38
2.4446671 0.60703164 0.09184581 -2.6603321e+38
2.4446568 0.60243773 0.091873229 -3.074319e+38
2.4405522 0.59689194 0.093320727 -3.3814476e+38
2.4231408 0.58829111 0.099382699 nan
2.421083 0.58326775 0.10011977 -3.3284911e+38
2.4210727 0.57871675 0.10014707 -3.2885102e+38
2.4231098 0.57462704 0.099464357 -3.2885623e+38
2.4056985 0.56618476 0.1055252 -3.3152509e+38
2.4056883 0.56166178 0.10555226 -3.3419395e+38
2.423079 0.56096303 0.099546015 -3.3685762e+38
2.422045 0.55618513 0.099928081 -3.3819206e+38
2.4414825 0.55583549 0.093212426 -3.3952139e+38
2.4465899 0.5523439 0.091465652 -3.3951628e+38
2.4926395 0.5575332 0.075524449 nan
2.4916053 0.55263603 0.075907171 nan
2.4875004 0.54710126 0.077354431 nan
2.4639487 0.53755569 0.085543513 -3.3820774e+38
2.4680324 0.53376645 0.084151924 -3.3953169e+38
2.4680219 0.52912968 0.08417958 -3.3151982e+38
2.4823406 0.52738094 0.079240203 -3.2618214e+38
2.4659536 0.51944721 0.084944427 -3.2618224e+38
2.4690139 0.51542187 0.083907843 -3.2484778e+38
2.463886 0.50977969 0.085709453 -3.328544e+38
2.4638758 0.50515044 0.085737109 nan
2.4689827 0.50150585 0.083991051 nan
2.4485021 0.49296531 0.091113329 nan
2.4495149 0.48855719 0.090786159 nan
2.4546223 0.48491085 0.08904022 nan
2.4556353 0.48048779 0.088712931 nan
2.4546015 0.47568578 0.089095294 nan
2.4494734 0.47014442 0.090896189 nan
2.4525337 0.46609288 0.089859545 nan
2.4658282 0.46385053 0.085276663 nan
2.4586535 0.45795628 0.087786913 nan
2.4586432 0.45333633 0.08781445 nan
2.4606798 0.4490692 0.08713305 -3.3819725e+38
2.4586222 0.44409633 0.087869763 -3.3685237e+38
2.4565651 0.43913096 0.088606536 -3.3418349e+38
2.4565547 0.4345147 0.088634074 -3.3151463e+38
2.458591 0.43023634 0.087952495 -3.3017501e+38
2.4422054 0.42294267 0.093653142 -3.2883538e+38
2.4432189 0.41851777 0.093325973 -3.2349768e+38
2.4421847 0.41376242 0.093707979 -3.1817562e+38
2.4401278 0.4088493 0.094444394 -3.181756e+38
2.4534218 0.40633821 0.089863062 -3.1818075e+38
2.4534116 0.40172756 0.089890718 -3.1818067e+38
2.4667056 0.39914376 0.085309803 -3.1818574e+38
2.4707887 0.395125 0.083919764 -3.1951507e+38
2.465661 0.38972169 0.085719645 -3.195048e+38
2.4758847 0.38659176 0.082202613 -3.1817557e+38
2.46257 0.38001025 0.086838305 -3.1818077e+38
2.4625595 0.37538281 0.086865962 -3.208444e+38
2.4298007 0.36612448 0.09823525 -3.221736e+38
2.4328609 0.3619853 0.0971995 -3.2350289e+38
2.4348969 0.35769391 0.09651792 -3.2217896e+38
2.4451203 0.35450798 0.093001366 -3.2350293e+38
2.4440866 0.34977502 0.093383133 -3.2749575e+38
2.4420295 0.34491038 0.09411937 -3.2749575e+38
2.4583929 0.34245652 0.088477135 -3.2882491e+38
2.4563358 0.33757326 0.089213431 -3.301542e+38
2.455302 0.33282721 0.089595318 -3.3282315e+38
2.4552917 0.3282128 0.089622855 -3.3416801e+38
2.4532347 0.32334629 0.090359092 -3.3284925e+38
2.4501543 0.3183631 0.091449618 -3.3284919e+38
2.4470739 0.31339103 0.092539966 -3.3284909e+38
2.4347832 0.30734608 0.096818805 -3.315199e+38
2.434773 0.30276901 0.096846104 -3.2885629e+38
2.448066 0.29970938 0.092268229 -3.2885629e+38
2.436799 0.29384458 0.0961923 -3.2885629e+38
2.4367888 0.28926378 0.096219718 -3.3285438e+38
2.4367783 0.28468296 0.096247017 -3.3419403e+38
2.4408612 0.28053918 0.094857514 -3.3285438e+38
2.440851 0.27595091 0.094884932 -3.3017507e+38
2.4428873 0.27157372 0.094204068 -3.2484254e+38
2.4612961 0.26884767 0.087856352 -3.2351336e+38
2.4612858 0.26422212 0.087884009 -3.2086003e+38
2.4592288 0.25939664 0.088619888 -3.1289493e+38
2.4592185 0.25477478 0.088647544 -3.1555346e+38
2.4673941 0.25092253 0.085842073 -3.195361e+38
2.4735234 0.24685176 0.083745122 -3.208549e+38
2.4735129 0.24220379 0.083772898 -3.2482687e+38
2.4601998 0.23637795 0.08840394 -3.194943e+38
2.4560964 0.23139927 0.089847863 -3.1551172e+38
2.4581323 0.22695675 0.089167237 -3.1418775e+38
2.4622149 0.2226768 0.087778509 -3.075365e+38
2.4601581 0.21788305 0.088514566 -3.0753646e+38
2.462194 0.21342188 0.087833822 -3.0620711e+38
2.463207 0.20887384 0.087507606 -3.0487267e+38
2.4631968 0.20424454 0.087535262 -3.0486224e+38
2.4642093 0.19969088 0.087208927 -3.0352778e+38
2.4631758 0.19498588 0.087590575 -3.048362e+38
2.4631653 0.19035657 0.087618232 -3.0349661e+38
2.4559922 0.18523668 0.090123713 -3.0216227e+38
2.457005 0.18068863 0.089797437 -2.9817456e+38
2.4600642 0.17626955 0.088763237 -2.915284e+38
2.4600537 0.17164582 0.088790774 -2.9019396e+38
2.4784608 0.16814917 0.082447529 -2.8885431e+38
2.4784503 0.16349186 0.082475305 -2.8352176e+38
2.4784398 0.15883456 0.0825032 -2.8218734e+38
2.4784293 0.15417725 0.082530975 -2.808529e+38
2.4784188 0.14951994 0.082558751 -2.7951325e+38
2.4784083 0.14486262 0.082586646 -2.7951838e+38
2.4783978 0.14020531 0.082614422 -2.8085261e+38
2.4579239 0.13455695 0.089719415 -2.8218188e+38
2.4507513 0.12960313 0.092223942 -2.8749368e+38
2.4476714 0.12485874 0.093312979 -2.8750409e+38
2.4578924 0.12069696 0.089802265 -2.8486123e+38
2.4568591 0.11603488 0.090183794 -2.8885415e+38
2.4537792 0.11129608 0.091272771 -2.9416067e+38
2.4292133 0.10576297 0.099791169 -2.9549514e+38
2.4425039 0.10166962 0.095219374 -2.981641e+38
2.4414701 0.097042993 0.095600545 -2.9949852e+38
2.4394138 0.092387334 0.09633553 -3.0217255e+38
2.4394035 0.08780092 0.096362948 -3.0617587e+38
2.439393 0.083214521 0.096390367 -3.0751029e+38
2.4393828 0.078628115 0.096417665 -3.0884473e+38
2.4393723 0.074041709 0.096445084 -3.1017398e+38
2.4577777 0.069877058 0.090105891 -3.1416688e+38
2.4577675 0.065257065 0.090133548 -3.1682535e+38
2.457757 0.060637072 0.090161085 -3.1815462e+38
2.4628623 0.056106247 0.088420391 -3.181547e+38
2.462852 0.051476926 0.088448048 -3.1948912e+38
2.481257 0.047101423 0.082110167 -3.2082876e+38
2.462831 0.042218283 0.08850348 -3.2215799e+38
2.4628205 0.037588961 0.088531137 -3.2215801e+38
2.47611 0.033070192 0.083961785 -3.2482687e+38
2.4556379 0.028283862 0.091061652 -3.2616131e+38
2.4556274 0.023667602 0.091089189 -3.2616654e+38
2.4392481 0.019004853 0.096773982 -3.2485291e+38
2.4668603 0.01444652 0.08725518 -3.2885623e+38
2.4668498 0.0098097352 0.087282836 -3.2885623e+38
2.461724 0.0051864106 0.089078128 -3.3152505e+38
2.4627371 0.0005543977 0.088752389 -3.3285943e+38
2.4637494 -0.0040813461 0.08842653 -3.3553346e+38
2.4637389 -0.008712532 0.088454187 -3.3286967e+38
2.4657748 -0.013364032 0.087774813 -3.3419375e+38
2.4831557 -0.018203318 0.081793308 -3.3685233e+38
2.4831452 -0.022869958 0.081821203 -3.3685235e+38
2.4831347 -0.027536592 0.081849098 -3.3818685e+38
2.4841473 -0.032220855 0.081523478 -3.3952129e+38
2.4861827 -0.036928333 0.080844402 -3.3952129e+38
2.48208 -0.041515164 0.082286179 -3.395265e+38
2.4994607 -0.046574622 0.076305807 -3.3554405e+38
2.4974041 -0.051220953 0.077040732 -3.3686287e+38
2.4922786 -0.055778973 0.078835785 nan
2.4922681 -0.0604624 0.0788638 nan
2.4738433 -0.064593583 0.085252464 nan
2.4738328 -0.069243431 0.08528024 nan
2.4942822 -0.074581526 0.078241169 -3.3952127e+38
2.47995 -0.078760788 0.083215773 -3.3818685e+38
2.4840314 -0.083574407 0.081830442 -3.381817e+38
2.4891357 -0.088442966 0.080091536 -3.381817e+38
2.4870791 -0.093037046 0.080826104 -3.3417318e+38
2.4870687 -0.097711153 0.080853999 -3.248321e+38
2.4870582 -0.10238525 0.080882013 -3.2084959e+38
2.4870474 -0.10705936 0.080909908 -3.3020108e+38
2.4870369 -0.11173346 0.080937803 -3.2755824e+38
2.4829347 -0.11620274 0.082378864 -3.3021669e+38
2.4604194 -0.1197018 0.090178192 -3.3152507e+38
2.4604089 -0.12432739 0.090205729 -3.2484242e+38
2.4583528 -0.12883937 0.09093982 -3.2749045e+38
2.4614108 -0.13363723 0.089907706 -3.3282824e+38
2.4583318 -0.1380831 0.090995014 -3.3418357e+38
2.4583216 -0.14270496 0.09102267 -3.3818172e+38
2.4634254 -0.14764814 0.08928448 -3.3684726e+38
2.4828503 -0.15353584 0.082602024 -3.3685245e+38
2.4992065 -0.15929048 0.076979458 -3.3152505e+38
2.4787376 -0.16258967 0.084070265 -3.2084442e+38
2.4797502 -0.16732058 0.083744943 -3.1550164e+38
2.4807622 -0.17205521 0.083419681 -3.1150343e+38
2.4623401 -0.17535979 0.089803576 -3.0883962e+38
2.4807413 -0.18138103 0.083475471 -3.1017408e+38
2.4827766 -0.18620232 0.08279717 -3.1417225e+38
2.4827662 -0.19086896 0.082825065 -3.1550673e+38
2.4817326 -0.19545269 0.083205998 -3.2084452e+38
2.4806993 -0.20003265 0.083586931 -3.301856e+38
2.4806886 -0.20469555 0.083614826 -3.2751672e+38
2.4939754 -0.21050927 0.079053342 -3.2218936e+38
2.4990792 -0.2156484 0.077316225 -3.1420874e+38
2.5185027 -0.22209775 0.070637047 -3.1286392e+38
2.506218 -0.22570021 0.074901462 -3.1550675e+38
2.5184813 -0.23156165 0.070693552 -3.1283781e+38
2.5225623 -0.23668499 0.069310009 -3.115085e+38
2.4459662 0.60724545 0.086908221 -2.7136574e+38
2.4449322 0.60240978 0.087292254 -3.0743196e+38
2.4408271 0.59686393 0.088747144 -3.3281231e+38
2.4234138 0.58826333 0.094840825 -3.3684192e+38
2.421356 0.58324003 0.095581591 -3.3018029e+38
2.4213455 0.57868904 0.09560889 -3.275166e+38
2.4244065 0.57482976 0.09456557 -3.2885623e+38
2.4264433 0.57073051 0.093879282 -3.3152509e+38
2.4264331 0.56617028 0.093906581 -3.3285953e+38
2.4264228 0.56160998 0.09393388 -3.3419395e+38
2.4458625 0.56128806 0.087182879 -3.3552318e+38
2.4458523 0.55669236 0.087210298 -3.3818691e+38
2.4458418 0.55209666 0.087237716 nan
2.4918964 0.55728722 0.071212709 nan
2.4918857 0.55260748 0.071240723 nan
2.4877806 0.54707283 0.072695374 nan
2.4642262 0.53752744 0.080927134 nan
2.4683101 0.5337382 0.079528153 nan
2.4867253 0.53284794 0.073135912 -3.3418874e+38
2.4826202 0.52735257 0.074590445 -3.261822e+38
2.4693024 0.52003217 0.079254508 -3.2351338e+38
2.4692919 0.51539356 0.079282284 -3.2217888e+38
2.4692814 0.51075494 0.07931006 -3.2752179e+38
2.450846 0.50253755 0.085756779 -3.3820249e+38
2.4508355 0.49793249 0.085784316 nan
2.4487779 0.49293727 0.086524963 nan
2.4477439 0.48814273 0.086908996 nan
2.4548988 0.48488271 0.084440529 nan
2.4548883 0.48027018 0.084468067 nan
2.4528306 0.47528243 0.085208595 nan
2.4589617 0.47178814 0.0830971 nan
2.4620223 0.46771982 0.082055151 nan
2.4732709 0.46509644 0.07816118 nan
2.4650722 0.45900911 0.0810408 nan
2.4619908 0.45384303 0.082138121 nan
2.4630039 0.44939387 0.081809223 -3.3819212e+38
2.4640174 0.44494098 0.081480384 -3.3551799e+38
2.4568417 0.43910283 0.08400327 -3.3151469e+38
2.4558077 0.43431574 0.084387183 -3.3150949e+38
2.4588678 0.43020821 0.083345532 -3.2884583e+38
2.4619284 0.4260895 0.082303941 -3.2617694e+38
2.4608943 0.42129868 0.082688093 -3.2350808e+38
2.4424598 0.41373447 0.0891307 -3.1951004e+38
2.4404027 0.40882134 0.089870811 -3.181756e+38
2.4567688 0.406789 0.084196389 -3.181756e+38
2.4567585 0.40217277 0.084223926 -3.1817553e+38
2.4680068 0.39927137 0.080331624 -3.1818067e+38
2.471067 0.39509669 0.07929039 -3.1951e+38
2.4618449 0.38908479 0.082525074 -3.2083417e+38
2.4659283 0.38506037 0.081127346 -3.1949969e+38
2.4536359 0.37864617 0.085430741 -3.2082886e+38
2.4556723 0.37432861 0.084745646 -3.2215807e+38
2.4300745 0.36609665 0.093680263 -3.2614054e+38
2.4300642 0.3615289 0.093707561 -3.2482174e+38
2.4331245 0.35738409 0.092666328 -3.2349774e+38
2.4433491 0.35420176 0.089130998 -3.2349772e+38
2.4586906 0.35166836 0.083814859 -3.2482695e+38
2.4566333 0.34677762 0.08455497 -3.2749579e+38
2.4515054 0.34149384 0.086363614 -3.2883015e+38
2.4433076 0.33583376 0.08924067 -3.301594e+38
2.4555786 0.33279908 0.084993839 -3.3149907e+38
2.4555683 0.32818466 0.085021377 -3.3416795e+38
2.4473703 0.32256195 0.087898433 -3.3284915e+38
2.4401958 0.31709325 0.090418935 -3.3284913e+38
2.4432557 0.31287375 0.08937788 -3.3284909e+38
2.4350576 0.30731818 0.092254639 -3.3151471e+38
2.4350471 0.30274111 0.092281938 -3.2752189e+38
2.4503887 0.29991475 0.086967587 -3.275167e+38
2.4370735 0.29381666 0.091624439 -3.2885112e+38
2.4370632 0.28923586 0.091651857 -3.3019071e+38
2.4411466 0.28509951 0.090254724 -3.3285949e+38
2.4411364 0.28051123 0.090282142 -3.3285951e+38
2.4411259 0.27592295 0.09030956 -3.2885106e+38
2.4431624 0.27154574 0.089624882 -3.2617697e+38
2.4615734 0.26881948 0.083243787 -3.2616656e+38
2.4615629 0.26419392 0.083271444 -3.23508e+38
2.4615526 0.2595683 0.083298981 -3.1952533e+38
2.4615421 0.25494272 0.083326638 -3.221891e+38
2.4676719 0.25089428 0.081218302 -3.2086007e+38
2.4738019 0.24682343 0.079110265 -3.2218407e+38
2.4737914 0.24217546 0.079138041 -3.23508e+38
2.4604769 0.23634978 0.083793163 -3.1950987e+38
2.4553494 0.23128243 0.085600495 -3.1685138e+38
2.4584091 0.22692859 0.084560275 -3.1419296e+38
2.4604456 0.2224786 0.083876133 -3.0887096e+38
2.4624817 0.21802114 0.083191812 -3.0886569e+38
2.4686117 0.21388127 0.081084013 -3.1018958e+38
2.4706481 0.20940141 0.08039999 -3.0885512e+38
2.463474 0.20421632 0.082918882 -3.0752068e+38
2.4634638 0.19958699 0.082946539 -3.0484658e+38
2.4634533 0.19495766 0.082974195 -3.0484137e+38
2.4634428 0.19032834 0.083001852 -3.035018e+38
2.4562688 0.18520854 0.085520446 -3.0082276e+38
2.455235 0.1805241 0.085903764 -2.9816426e+38
2.4603412 0.17624137 0.08415246 -2.9550051e+38
2.4603307 0.17161764 0.084179997 -2.9284205e+38
2.47874 0.16812079 0.077803254 -2.8751989e+38
2.4746363 0.16322052 0.07925421 -2.8352178e+38
2.4746258 0.15857068 0.079281986 -2.8218734e+38
2.4582424 0.15300873 0.085002065 -2.8218732e+38
2.4582319 0.14838874 0.085029602 -2.8085803e+38
2.4766409 0.14472771 0.078653991 -2.8218203e+38
2.4602578 0.13925159 0.084373474 -2.8616444e+38
2.4520612 0.13423154 0.087246597 -2.8616963e+38
2.453074 0.12967041 0.086918592 -2.8882812e+38
2.4530637 0.12505974 0.08694613 -2.8883334e+38
2.4622626 0.12084459 0.08377248 -2.9016778e+38
2.4612291 0.11617506 0.084155858 -2.915022e+38
2.4612186 0.11154946 0.084183514 -2.9282623e+38
2.4325569 0.10585017 0.094169438 -2.9416072e+38
2.4427791 0.10164163 0.090640187 -2.9549009e+38
2.4601638 0.097638071 0.084622145 -2.9949339e+38
2.4417348 0.092424877 0.091050684 -3.021674e+38
2.4417245 0.087834738 0.091078103 -3.048363e+38
2.4396679 0.083186567 0.091816783 -3.0616559e+38
2.4396577 0.078600161 0.091844082 -3.0617078e+38
2.4447632 0.074140191 0.090093851 -3.088396e+38
2.4601014 0.069895737 0.084787846 -3.128429e+38
2.4600909 0.065272018 0.084815502 -3.1417213e+38
2.4600804 0.060648292 0.084843159 -3.1417215e+38
2.4631398 0.056078032 0.083804011 -3.1550661e+38
2.4631293 0.05144871 0.083831668 -3.1550663e+38
2.4815364 0.047073007 0.077460408 -3.1817553e+38
2.4631085 0.042190075 0.0838871 -3.1950478e+38
2.4671905 0.037602186 0.082492888 -3.2215807e+38
2.4682033 0.032973889 0.082165003 -3.2482693e+38
2.4692161 0.028341869 0.081837237 -3.2616133e+38
2.4692056 0.023701353 0.081865013 -3.2616656e+38
2.4579401 0.019028999 0.085802674 -3.2485299e+38
2.4783933 0.014429575 0.078721642 -3.2885627e+38
2.4794059 0.0097714271 0.078394115 -3.2752179e+38
2.4793954 0.0051122517 0.07842201 -3.3019069e+38
2.4814312 0.00044393726 0.077739 -3.3418886e+38
2.4691429 -0.0041417461 0.082031429 -3.3285953e+38
2.4640167 -0.0087407548 0.0838359 -3.3419371e+38
2.4844692 -0.013575286 0.076756537 -3.3685744e+38
2.4834354 -0.018231757 0.077139735 -3.3685233e+38
2.4834249 -0.022898396 0.07716763 -3.3685239e+38
2.4823911 -0.027549269 0.077550828 -3.3817657e+38
2.4823806 -0.032214046 0.077578723 -3.3951618e+38
2.4823701 -0.036878817 0.077606618 nan
2.4762211 -0.041415416 0.079766333 nan
2.4762104 -0.046068996 0.079794109 -3.3687328e+38
2.4761999 -0.050722569 0.079821885 -3.3686287e+38
2.4925594 -0.055807516 0.074165404 -3.3951614e+38
2.4925487 -0.060490943 0.074193418 -3.3951618e+38
2.474122 -0.06462191 0.080615699 -3.3951111e+38
2.4741116 -0.069271758 0.080643475 -3.3818184e+38
2.4741011 -0.073921606 0.080671251 -3.355233e+38
2.4955754 -0.079333544 0.073239744 -3.3551811e+38
2.4996574 -0.084175199 0.071847141 -3.3684215e+38
2.5047622 -0.089071795 0.070099294 -3.355129e+38
2.4853129 -0.092981756 0.076875627 -3.3150958e+38
2.4863257 -0.097695887 0.076548338 -3.2483741e+38
2.486315 -0.10236812 0.076576233 -3.2350825e+38
2.4863045 -0.10704036 0.076604128 -3.2886674e+38
2.485271 -0.11166324 0.076987326 -3.262237e+38
2.4647992 -0.11530927 0.084117353 -3.2755296e+38
2.4606967 -0.11972998 0.085565627 -3.3019065e+38
2.4586401 -0.12424569 0.086303413 -3.2485297e+38
2.4606757 -0.12898117 0.085620821 -3.2750638e+38
2.4688497 -0.13407621 0.082807839 -3.3017526e+38
2.4657702 -0.13853508 0.08390075 -3.3417339e+38
2.4606445 -0.14285794 0.08570379 -3.3817663e+38
2.4667721 -0.14786921 0.083601177 -3.381817e+38
2.4861991 -0.15376271 0.076883316 -3.3551803e+38
2.4831195 -0.15823092 0.077976346 -3.2885623e+38
2.4820859 -0.1628277 0.078359187 -3.1684117e+38
2.4841216 -0.16763595 0.07767719 -3.1282254e+38
2.4667199 -0.17105313 0.083739698 -3.1149836e+38
2.4656866 -0.17561445 0.08412236 -3.1017406e+38
2.4820437 -0.1814868 0.078470767 -3.1150848e+38
2.4861252 -0.18646838 0.0770787 -3.1284292e+38
2.4830458 -0.19089741 0.078171492 -3.1284298e+38
2.4830353 -0.19556403 0.078199387 -3.208393e+38
2.4850707 -0.20040029 0.077517569 -3.301856e+38
2.4932442 -0.20576403 0.074706197 -3.2751672e+38
2.5055091 -0.21151175 0.070475519 -3.2484782e+38
2.5054984 -0.21621943 0.070503652 -3.1951523e+38
2.5249243 -0.2226802 0.063789248 -3.1684113e+38
2.5228677 -0.22723505 0.064527214 -3.1551183e+38
2.5249028 -0.23216648 0.063845992 -3.1150848e+38
2.5248921 -0.23690961 0.063874245 -3.0883962e+38
2.4462416 0.60721743 0.082325339 -2.7137087e+38
2.4462314 0.60262167 0.082352757 -3.1011123e+38
2.4431493 0.59731197 0.083456337 -3.3281234e+38
2.4247105 0.58847165 0.08994025 -3.3284385e+38
2.4236763 0.58368087 0.09032613 -3.2618224e+38
2.441071 0.58307678 0.084255934 -3.2618218e+38
2.4267271 0.57526308 0.089304745 -3.2885102e+38
2.4267166 0.57070273 0.089331925 -3.3151986e+38
2.4277306 0.5663693 0.089000285 -3.3285428e+38
2.4461484 0.5658558 0.08257246 -3.3418874e+38
2.4461381 0.56126004 0.082599998 -3.3685243e+38
2.4461277 0.55666435 0.082627416 -3.3952129e+38
2.4461172 0.55206865 0.082654834 nan
2.4829628 0.55530155 0.069773436 -3.3953689e+38
2.4829521 0.55063862 0.069801331 -3.3954729e+38
2.4829416 0.54597574 0.069829226 nan
2.4645038 0.53749925 0.076310873 -3.3954737e+38
2.4644933 0.53286994 0.07633853 -3.3953174e+38
2.4644828 0.52824062 0.076366186 -3.3418355e+38
2.4828997 0.52732414 0.069940686 -3.2751147e+38
2.4675331 0.51959515 0.075345933 -3.2351342e+38
2.4695702 0.5153653 0.074656725 -3.2084448e+38
2.4675121 0.51032531 0.075401366 -3.2485293e+38
2.4490743 0.50211197 0.081881523 -3.3552837e+38
2.4511116 0.49790442 0.081192136 nan
2.4511011 0.49329937 0.081219673 nan
2.4510908 0.48869431 0.081247211 nan
2.4582465 0.48542863 0.078765571 nan
2.458236 0.48081049 0.078793228 nan
2.4561779 0.47581717 0.07953763 nan
2.4664044 0.47306016 0.075981319 nan
2.4633231 0.46787551 0.077084005 nan
2.4571705 0.46215597 0.079262078 nan
2.4673972 0.45934117 0.075706065 nan
2.4448655 0.45078415 0.083617389 -3.3819218e+38
2.4458787 0.44636664 0.083286524 -3.3685253e+38
2.4642949 0.44491276 0.076864123 -3.3551284e+38
2.4612131 0.43976542 0.077966809 -3.3151471e+38
2.457108 0.43445843 0.07942754 -3.3150949e+38
2.4570975 0.4298422 0.079455197 -3.2751658e+38
2.4427557 0.42288673 0.084498584 -3.2485291e+38
2.4406984 0.41796619 0.085242629 -3.2218924e+38
2.4406881 0.41337979 0.085270047 -3.1819636e+38
2.4376066 0.40830892 0.086372077 -3.1553268e+38
2.4539747 0.40628204 0.080667734 -3.1419826e+38
2.4560113 0.4019869 0.079978824 -3.1685669e+38
2.4529302 0.39690477 0.081081092 -3.1818071e+38
2.4539435 0.39245003 0.080750465 -3.1951002e+38
2.4529092 0.38768718 0.081136167 -3.2083415e+38
2.4539225 0.38322872 0.08080554 -3.2215813e+38
2.4569831 0.37906331 0.079758584 -3.2614058e+38
2.4569726 0.37444705 0.079786241 -3.2614577e+38
2.4354663 0.36679229 0.087334871 -3.2614054e+38
2.433409 0.36192957 0.088078439 -3.248165e+38
2.4374928 0.35792008 0.0866732 -3.2349247e+38
2.4436243 0.35417378 0.08455193 -3.2349245e+38
2.461015 0.3519147 0.078491807 -3.2483208e+38
2.4558864 0.34661415 0.080309749 -3.2750613e+38
2.4517817 0.34146577 0.081769645 -3.2618208e+38
2.4507477 0.3367272 0.082155347 -3.2751134e+38
2.4558551 0.33277097 0.08039248 -3.2884581e+38
2.4537978 0.32790077 0.081136107 -3.3018025e+38
2.4425278 0.32190374 0.085102141 -3.3151988e+38
2.4404707 0.3170653 0.08584547 -3.3285432e+38
2.4455781 0.31309032 0.084082961 -3.3284909e+38
2.4373791 0.30753118 0.086974323 -3.3018027e+38
2.4373689 0.30295035 0.087001741 -3.2884071e+38
2.4516881 0.30000338 0.082017362 -3.2751149e+38
2.4373481 0.29378876 0.087056458 -3.2751668e+38
2.4383614 0.28932089 0.08672595 -3.2885108e+38
2.4434688 0.28529373 0.084963441 -3.2885621e+38
2.4434586 0.28070176 0.084990978 -3.2885621e+38
2.441401 0.27589497 0.085734189 -3.2751658e+38
2.4485552 0.27204531 0.083256245 -3.2617175e+38
2.4628739 0.26889494 0.078272998 -3.2749062e+38
2.4669578 0.2646746 0.076869309 -3.2616129e+38
2.4751353 0.26083896 0.074033916 -3.2749561e+38
2.4751248 0.25618911 0.074061692 -3.3015936e+38
2.4771614 0.2517316 0.073373854 -3.2882508e+38
2.4791977 0.24726665 0.072685838 -3.2616658e+38
2.4791873 0.24260935 0.072713614 -3.2084957e+38
2.4802003 0.23804261 0.072383821 -3.1818588e+38
2.4740491 0.23285118 0.074558616 -3.1818069e+38
2.4586861 0.22690044 0.079953313 -3.1684627e+38
2.4607227 0.22245044 0.079265475 -3.1151901e+38
2.4709473 0.21865787 0.075715184 -3.1017932e+38
2.476054 0.21442175 0.073953927 -3.1017404e+38
2.4760435 0.20977005 0.073981702 -3.0884477e+38
2.4637516 0.20418811 0.078302622 -3.0884471e+38
2.4627173 0.19948311 0.078687847 -3.0617585e+38
2.4616838 0.19478187 0.079073489 -3.0484139e+38
2.4606497 0.19008437 0.079458833 -3.0350182e+38
2.4565456 0.18518041 0.08091718 -3.0082789e+38
2.4555116 0.18049598 0.081302404 -2.9949343e+38
2.4585714 0.17608054 0.080257058 -2.9682968e+38
2.4565144 0.17133163 0.080999911 -2.9283678e+38
2.4749255 0.16784203 0.07458967 -2.8752502e+38
2.4738917 0.16313148 0.074975133 -2.8618541e+38
2.4564829 0.15748285 0.081082642 -2.8218215e+38
2.445215 0.15223968 0.085044146 -2.8217691e+38
2.4564621 0.14825033 0.081137836 -2.8615941e+38
2.4564517 0.14363408 0.081165493 -2.8482492e+38
2.458488 0.13912061 0.080477834 -2.8615924e+38
2.4451735 0.13385673 0.085153937 -2.861645e+38
2.452327 0.12959465 0.082678378 -2.8217689e+38
2.4564102 0.12516904 0.081275761 -2.8351653e+38
2.4625399 0.12081639 0.079157889 -2.8618024e+38
2.4615061 0.11614687 0.079543293 -2.8750942e+38
2.4614959 0.11152127 0.079570949 -2.9283141e+38
2.4359012 0.1059373 0.088536322 -2.9416589e+38
2.445101 0.10168658 0.085346222 -2.9682968e+38
2.4450905 0.097090855 0.08537364 -3.0083296e+38
2.4450803 0.092495114 0.085401058 -3.0217255e+38
2.4450698 0.087899379 0.085428596 -3.0483624e+38
2.4450595 0.083303653 0.085456014 -3.048363e+38
2.445049 0.078707911 0.085483551 -3.0617593e+38
2.4450388 0.074112184 0.085510969 -3.1017398e+38
2.4419582 0.069446221 0.086610734 -3.1284286e+38
2.4613914 0.065265387 0.079847395 -3.1284286e+38
2.4634278 0.060679145 0.079160094 -3.1285327e+38
2.4654636 0.056085445 0.078473032 -3.0887599e+38
2.4818263 0.051707499 0.072782755 -3.1153972e+38
2.4818158 0.04704459 0.07281065 -3.1287426e+38
2.4633861 0.04216186 0.07927084 -3.1552752e+38
2.4684918 0.037584275 0.077511787 -3.2215809e+38
2.473598 0.03298803 0.075752854 -3.2482693e+38
2.4735875 0.028340047 0.07578063 -3.2616131e+38
2.4725535 0.02368732 0.076165736 -3.2616133e+38
2.4766364 0.019052736 0.074764311 -3.2883542e+38
2.4786723 0.014401193 0.074077368 -3.3150947e+38
2.4786618 0.0097438833 0.074105144 -3.2886136e+38
2.4786513 0.0050865733 0.074133039 -3.3419393e+38
2.4980831 0.00034222938 0.067373097 -3.3419397e+38
2.4673743 -0.0041571315 0.078118384 -3.3419391e+38
2.4642942 -0.0087689795 0.079217732 -3.368574e+38
2.4837258 -0.013593556 0.072458386 -3.3819188e+38
2.4837151 -0.018260196 0.072486281 -3.3818677e+38
2.4642627 -0.022662541 0.079300821 -3.3952129e+38
2.4642522 -0.027293725 0.079328477 -3.3951109e+38
2.464242 -0.031924911 0.079356134 -3.3951105e+38
2.4621849 -0.036517084 0.080098093 nan
2.459105 -0.041080423 0.081197321 nan
2.458071 -0.045679033 0.081582189 -3.3553884e+38
2.4580605 -0.050299026 0.081609726 -3.3553363e+38
2.4744217 -0.055350564 0.075923383 -3.3952129e+38
2.4744112 -0.060000405 0.075951159 -3.3951616e+38
2.4744008 -0.064650252 0.075978935 -3.3951111e+38
2.4743903 -0.0693001 0.076006711 -3.3818184e+38
2.4743798 -0.073949948 0.076034486 -3.3552332e+38
2.4958565 -0.079362124 0.068563998 -3.3418888e+38
2.4978924 -0.084127486 0.067877829 -3.3418888e+38
2.4845805 -0.088299811 0.072547615 -3.328544e+38
2.48457 -0.092968322 0.07257551 -3.3150949e+38
2.4845593 -0.097636819 0.072603405 -3.2484252e+38
2.4845488 -0.10230532 0.072631299 -3.2351336e+38
2.4845383 -0.10697383 0.072659194 -3.3151994e+38
2.4650872 -0.11070445 0.07946974 -3.3152501e+38
2.4640539 -0.11528628 0.07985431 -3.301958e+38
2.460974 -0.11975817 0.080953062 -3.2885623e+38
2.4589171 -0.12427385 0.081694424 -3.2753228e+38
2.4670918 -0.12935032 0.078866541 -3.262084e+38
2.4742434 -0.13439794 0.07639581 -3.2886165e+38
2.4732099 -0.13898723 0.076780558 -3.3684225e+38
2.4639912 -0.14307339 0.080020368 -3.3818186e+38
2.4680731 -0.14796174 0.078620553 -3.3552334e+38
2.4885254 -0.15392351 0.071510434 -3.3285963e+38
2.4885147 -0.15859948 0.071538448 -3.2885621e+38
2.4874814 -0.16320556 0.071923196 -3.1818077e+38
2.4884937 -0.16795142 0.071594238 -3.1149834e+38
2.4669976 -0.17108138 0.079115927 -3.0883457e+38
2.4690335 -0.17586914 0.078429997 -3.1150848e+38
2.4864159 -0.18182461 0.072391748 -3.1151366e+38
2.4884515 -0.1866553 0.071706057 -3.1151361e+38
2.4833255 -0.19092584 0.073518038 -3.1417217e+38
2.492523 -0.19633903 0.070334852 -3.1683598e+38
2.5068357 -0.20220985 0.065368056 -3.2484263e+38
2.5098944 -0.20717947 0.06432575 -3.2483222e+38
2.5088603 -0.21180606 0.064710796 -3.2083409e+38
2.5047574 -0.21615769 0.066165864 -3.1550675e+38
2.5047469 -0.22086352 0.066193998 -3.1417227e+38
2.5026903 -0.22538108 0.066935599 -3.1284294e+38
2.5067718 -0.23046719 0.065536857 -3.1017406e+38
2.5251763 -0.23693852 0.059144378 -3.0883962e+38
2.4465172 0.60718942 0.077742457 -2.7270533e+38
2.4454827 0.60235375 0.078130543 -3.1011642e+38
2.4434245 0.59728402 0.078879058 -3.3015907e+38
2.443414 0.59269387 0.078906476 -3.3150941e+38
2.4454517 0.58857214 0.078212917 -3.2351853e+38
2.4454412 0.5839783 0.078240454 -3.248477e+38
2.446455 0.579615 0.077907205 -3.2751134e+38
2.4464445 0.5750193 0.077934623 -3.3018023e+38
2.4464343 0.57042354 0.07796216 -3.3151467e+38
2.4464238 0.56582779 0.077989578 -3.3284915e+38
2.4464135 0.56123203 0.078017116 -3.3551803e+38
2.446403 0.55663633 0.078044534 -3.3818689e+38
2.464823 0.55598831 0.071583748 -3.395265e+38
2.4832423 0.55527312 0.065123558 -3.382076e+38
2.464802 0.54672968 0.07163918 -3.3821796e+38
2.4647915 0.54210037 0.071666837 -3.3954729e+38
2.4647813 0.53747106 0.071694493 -3.3687326e+38
2.4647708 0.53284174 0.07172215 -3.3419401e+38
2.4647603 0.52821243 0.071749806 -3.3284919e+38
2.4647498 0.52358305 0.071777463 -3.2884597e+38
2.4667869 0.51936251 0.071084321 -3.2484273e+38
2.4514186 0.51169157 0.076517463 -3.2484788e+38
2.4493606 0.50668526 0.07726562 -3.3152004e+38
2.4493501 0.50208396 0.077293158 -3.3952658e+38
2.4513876 0.49787638 0.076599956 nan
2.4544487 0.49385649 0.075546503 nan
2.4636526 0.49098456 0.072331369 nan
2.4636421 0.48635709 0.072359025 nan
2.4605606 0.4811613 0.073467672 nan
2.4595261 0.47635183 0.0738554 nan
2.46873 0.47340342 0.070640743 nan
2.4656482 0.46821502 0.07174927 nan
2.4656377 0.46358383 0.071776927 nan
2.4717703 0.46003348 0.069643259 -3.3953703e+38
2.4461646 0.45093438 0.078676105 -3.3553894e+38
2.4461541 0.44633862 0.078703642 -3.341889e+38
2.4635482 0.44470999 0.072607934 -3.3417331e+38
2.4604666 0.43956459 0.073716223 -3.3150956e+38
2.4563608 0.4342595 0.075184345 -3.3150949e+38
2.4563503 0.42964512 0.075211883 -3.2884579e+38
2.4430308 0.42285874 0.079921424 -3.2485804e+38
2.4409733 0.41793823 0.080669045 -3.2087036e+38
2.440963 0.41335183 0.080696464 -3.1555342e+38
2.4286671 0.40682775 0.085045099 -3.1288458e+38
2.4409423 0.40417901 0.080751181 -3.1155018e+38
2.4593592 0.40243194 0.07429719 -3.1420343e+38
2.4624202 0.39827958 0.073244631 -3.1818071e+38
2.461386 0.3935 0.07363224 -3.1950474e+38
2.4583044 0.38841987 0.074739993 -3.2082876e+38
2.4582939 0.38380173 0.074767649 -3.2215801e+38
2.4562359 0.37888676 0.07551527 -3.2614573e+38
2.4531543 0.37383273 0.076622903 -3.2748015e+38
2.4306221 0.36604097 0.084570527 -3.261509e+38
2.4326591 0.36175883 0.083877981 -3.2482163e+38
2.4377675 0.35789216 0.082105339 -3.2349758e+38
2.4438994 0.3541458 0.079972863 -3.234976e+38
2.4623158 0.35202369 0.073521078 -3.2616129e+38
2.4541156 0.34631535 0.076428175 -3.2617686e+38
2.4541054 0.34170467 0.076455712 -3.2485798e+38
2.4510238 0.33669916 0.077563167 -3.2485804e+38
2.4571555 0.3328726 0.075431049 -3.2618735e+38
2.4540741 0.32787266 0.076538324 -3.2751658e+38
2.4428029 0.32187575 0.080524862 -3.3150949e+38
2.4591715 0.3192721 0.074794054 -3.3151469e+38
2.4458535 0.31306231 0.079500079 -3.3150424e+38
2.4376538 0.30750325 0.082406461 -3.2750617e+38
2.4376433 0.30292243 0.082433879 -3.2617703e+38
2.4519641 0.29997531 0.077423275 -3.2617705e+38
2.4376228 0.29376084 0.082488596 -3.2618224e+38
2.4406836 0.28951889 0.081436396 -3.2751145e+38
2.4488621 0.28582126 0.078585386 -3.2884061e+38
2.4468045 0.28100148 0.07933253 -3.2884061e+38
2.4457705 0.27629647 0.079719782 -3.2485291e+38
2.4508784 0.27222824 0.077948332 -3.235133e+38
2.4508679 0.26762322 0.077975869 -3.2483737e+38
2.474401 0.26535872 0.069729209 -3.2483214e+38
2.4774613 0.26101044 0.068677723 -3.2749058e+38
2.4774508 0.25635687 0.068705499 -3.2882506e+38
2.4774404 0.25170326 0.068733275 -3.2881988e+38
2.4794769 0.24723826 0.068041801 -3.2616139e+38
2.4784431 0.24248852 0.068429172 -3.2084444e+38
2.4784327 0.23783308 0.068457067 -3.1817553e+38
2.4763746 0.23300025 0.069204152 -3.1684627e+38
2.4599869 0.22695912 0.074986756 -3.1684627e+38
2.461 0.22242224 0.074654579 -3.141774e+38
2.4691782 0.21846336 0.071805 -3.101793e+38
2.4763327 0.21439341 0.069315374 -3.0486238e+38
2.4763222 0.2097417 0.06934315 -3.0485713e+38
2.4589109 0.20377232 0.075484276 -3.0751029e+38
2.4578772 0.1990767 0.075871527 -3.0617066e+38
2.4609373 0.19467992 0.07482028 -3.0615506e+38
2.4619505 0.1901281 0.074488461 -3.061551e+38
2.4568222 0.18515228 0.076313794 -3.0216229e+38
2.4537411 0.18033148 0.077419996 -2.9950379e+38
2.4568014 0.17591974 0.076368988 -2.9419201e+38
2.4557674 0.17123908 0.07675612 -2.9151794e+38
2.467016 0.16731304 0.072829068 -2.8885944e+38
2.4649584 0.16255671 0.073575795 -2.8618539e+38
2.4567597 0.15745471 0.076479256 -2.8615943e+38
2.4403729 0.15192673 0.082258582 -2.8482497e+38
2.4536684 0.14805686 0.077612877 -2.8615415e+38
2.4567285 0.14360595 0.076562107 -2.8615413e+38
2.458765 0.13909245 0.075870752 -2.8615409e+38
2.4423783 0.13368016 0.081649363 -2.8482492e+38
2.4526031 0.12956657 0.078082502 -2.7951331e+38
2.4587336 0.12523249 0.075953603 -2.8351665e+38
2.4423473 0.11990975 0.081731737 -2.8751484e+38
2.4413135 0.11527756 0.082118452 -2.8617506e+38
2.4627964 0.11153327 0.074598849 -2.9016768e+38
2.4423161 0.10613934 0.081813991 -2.9150218e+38
2.4453764 0.10165858 0.08076334 -2.9682964e+38
2.4453661 0.097062849 0.080790758 -3.0216738e+38
2.4453557 0.092467107 0.080818176 -3.0484137e+38
2.4453454 0.087871373 0.080845714 -3.0484141e+38
2.4453349 0.083275646 0.080873132 -3.048363e+38
2.4453247 0.078679904 0.080900669 -3.0883439e+38
2.4453142 0.074084178 0.080928087 -3.1149283e+38
2.4422333 0.069418252 0.082033455 -3.1549091e+38
2.4606452 0.065215662 0.075593948 -3.1549607e+38
2.4606347 0.060591936 0.075621605 -3.1417205e+38
2.4616477 0.05598601 0.075290143 -3.1152398e+38
2.4790356 0.051631287 0.069210649 -3.1685659e+38
2.4820952 0.047016174 0.068160772 -3.1818592e+38
2.4636633 0.042133652 0.07465446 -3.1818073e+38
2.4759338 0.037628353 0.070371687 -3.2349245e+38
2.4779704 0.032993585 0.069681108 -3.2482687e+38
2.48103 0.028357947 0.068631351 -3.2482687e+38
2.4810195 0.023696903 0.068659246 -3.2349764e+38
2.4789619 0.01903012 0.069405437 -3.2484768e+38
2.4789515 0.014372811 0.069433331 -3.2751656e+38
2.4799645 0.0097146407 0.069101989 -3.3151457e+38
2.479954 0.0050554648 0.069129884 -3.3685231e+38
2.4993877 0.00030903891 0.062334418 -3.3419375e+38
2.486073 -0.0043016337 0.067030847 -3.3685746e+38
2.4840159 -0.0089553557 0.067777038 -3.3685231e+38
2.4840055 -0.013621997 0.067804933 -3.3685754e+38
2.4799013 -0.018240413 0.069269001 -3.3818685e+38
2.4594238 -0.022621153 0.076478064 -3.3952137e+38
2.4594133 -0.027243009 0.076505721 nan
2.4594028 -0.031864867 0.076533377 nan
2.4593923 -0.036486723 0.076560915 -3.3951614e+38
2.4593821 -0.041108586 0.076588571 -3.3951614e+38
2.458348 -0.045707189 0.076975107 -3.3685245e+38
2.4583375 -0.050327182 0.077002645 -3.3685245e+38
2.4562805 -0.054893211 0.077748239 nan
2.45627 -0.059509471 0.077775776 nan
2.4746795 -0.064678594 0.07134217 -3.3950575e+38
2.474669 -0.069328442 0.071369946 -3.3817651e+38
2.4746585 -0.07397829 0.071397722 -3.381817e+38
2.4787414 -0.078773372 0.06998992 -3.3685247e+38
2.4797542 -0.083468869 0.069658816 -3.3420442e+38
2.4848602 -0.088328265 0.067892253 -3.3553884e+38
2.4868963 -0.093080588 0.067202091 -3.342044e+38
2.4868858 -0.097752832 0.067230105 -3.301959e+38
2.4848287 -0.10233378 0.067975938 -3.288511e+38
2.4837947 -0.10695477 0.068362594 -3.3151994e+38
2.4674118 -0.11083143 0.074131906 -3.3152503e+38
2.4653544 -0.11536573 0.074877203 -3.3285949e+38
2.461251 -0.11978637 0.076340497 -3.3686283e+38
2.4591942 -0.12430203 0.077085674 -3.3953182e+38
2.4673698 -0.12937859 0.074242771 -3.3418385e+38
2.4796386 -0.1347198 0.069965065 -3.341786e+38
2.4745116 -0.13907613 0.071786821 -3.3684215e+38
2.4663153 -0.1432265 0.07468468 -3.3684219e+38
2.4734676 -0.14831151 0.072201133 -3.3551823e+38
2.4928987 -0.15421668 0.0654127 -3.3418892e+38
2.5072136 -0.15985256 0.060418367 -3.3152507e+38
2.4918544 -0.16351363 0.06582737 -3.2217888e+38
2.4918437 -0.1681952 0.065855265 -3.141672e+38
2.4672756 -0.17110965 0.074492157 -3.1016901e+38
2.4693117 -0.17589742 0.073802531 -3.1017406e+38
2.4897659 -0.18208519 0.066656649 -3.0883958e+38
2.4918015 -0.18692146 0.065967202 -3.0884991e+38
2.4948606 -0.19184633 0.064919293 -3.1150844e+38
2.5050821 -0.19736308 0.061360896 -3.1549114e+38
2.5091643 -0.20240819 0.059954464 -3.2083409e+38
2.5142696 -0.20755497 0.058189511 -3.1817044e+38
2.5214214 -0.21289748 0.055707514 -3.1550675e+38
2.5183411 -0.21736188 0.056811512 -3.1550675e+38
2.505029 -0.22089221 0.061501443 -3.1417225e+38
2.5080881 -0.22588047 0.060453832 -3.1284286e+38
2.5101237 -0.23078395 0.059764802 -3.088396e+38
2.5335388 -0.28533119 0.051830471 -2.7817883e+38
2.5335281 -0.29008925 0.051858962 -2.7816828e+38
2.5488641 -0.29665151 0.046510994 -2.7413873e+38
2.4600947 0.60568351 0.068475485 -3.1012161e+38
2.4447238 0.59749401 0.073939443 -3.3149345e+38
2.4447136 0.59290206 0.073966861 -3.3151978e+38
2.4436789 0.58807576 0.074356616 -3.2352368e+38
2.4457166 0.58395034 0.07365948 -3.1820671e+38
2.4467304 0.57958698 0.073324442 -3.1821713e+38
2.4467201 0.57499129 0.07335186 -3.2620291e+38
2.4467096 0.57039553 0.073379397 -3.3019059e+38
2.4466994 0.56579977 0.073406816 -3.3285438e+38
2.4466889 0.56120402 0.073434353 -3.3418888e+38
2.465111 0.56058943 0.066939831 -3.3553882e+38
2.4651005 0.55596006 0.066967487 -3.3687841e+38
2.4835217 0.55524468 0.0604738 -3.3688871e+38
2.4650795 0.54670143 0.06702292 -3.3822829e+38
2.457901 0.54057616 0.069586575 -3.3822322e+38
2.4650586 0.5374428 0.067078233 -3.3288032e+38
2.4650483 0.53281349 0.067105889 -3.3153037e+38
2.4650378 0.52818418 0.067133546 -3.3418371e+38
2.4629793 0.52314234 0.067885816 -3.3152008e+38
2.4486332 0.51565546 0.072984397 -3.2885122e+38
2.4516947 0.51166356 0.071925402 -3.3285454e+38
2.4496362 0.50665718 0.072677135 nan
2.449626 0.50205588 0.072704673 nan
2.4537113 0.49824214 0.0712834 nan
2.4649646 0.49577886 0.067327142 nan
2.4670017 0.4915359 0.066630423 nan
2.4669912 0.48690283 0.066658199 nan
2.4659572 0.48208037 0.067048013 nan
2.4669704 0.47763675 0.066713512 nan
2.471056 0.4737466 0.065292895 nan
2.4669495 0.46837065 0.066768944 nan
2.4638674 0.46319163 0.067882955 nan
2.45157 0.45640275 0.072255611 nan
2.44644 0.4509064 0.074093342 -3.3686817e+38
2.4464297 0.44631064 0.074120879 -3.3551815e+38
2.4453952 0.44154042 0.074510396 -3.3550777e+38
2.445385 0.43694654 0.074537814 -3.3151479e+38
2.4392314 0.43132791 0.076737404 -3.2885102e+38
2.4392209 0.42674524 0.076764822 -3.2619252e+38
2.443306 0.42283079 0.075344026 -3.2353403e+38
2.4432957 0.4182407 0.075371563 -3.1954113e+38
2.4432852 0.41365054 0.075398982 -3.1555342e+38
2.4289408 0.40679991 0.080493927 -3.1421381e+38
2.4412172 0.40415105 0.076177716 -3.1287426e+38
2.459636 0.40240377 0.069690228 -3.155327e+38
2.4606497 0.39793971 0.069355786 -3.1951515e+38
2.4606395 0.39331788 0.069383442 -3.1950989e+38
2.4770105 0.39113009 0.063620389 -3.1817541e+38
2.477 0.38647836 0.063648164 -3.1950468e+38
2.4544649 0.37856188 0.07163763 -3.2083916e+38
2.4513831 0.37351161 0.072750926 -3.221632e+38
2.4308958 0.36601314 0.08001554 -3.2348723e+38
2.4544337 0.36472988 0.071720243 -3.2349241e+38
2.4574947 0.36054203 0.070662439 -3.234976e+38
2.4595318 0.35620388 0.069966316 -3.2349762e+38
2.4595213 0.35158387 0.069993854 -3.2615616e+38
2.4513206 0.34588122 0.072916031 -3.261665e+38
2.4472151 0.34074226 0.07439059 -3.2484236e+38
2.4420855 0.33548659 0.076227009 -3.248476e+38
2.4564083 0.33271471 0.071189642 -3.2485287e+38
2.4512792 0.32746097 0.073026061 -3.2618731e+38
2.4379592 0.32121775 0.077756464 -3.2884583e+38
2.4379489 0.31663695 0.077783883 -3.2885102e+38
2.4430573 0.31266755 0.076002419 -3.2751141e+38
2.4563563 0.30964273 0.071327448 -3.2351851e+38
2.4563458 0.30502835 0.071355104 -3.2086531e+38
2.4604309 0.3008807 0.069935858 -3.2219451e+38
2.4378972 0.29373291 0.077920735 -3.2618739e+38
2.4522195 0.2907334 0.0728845 -3.2751139e+38
2.4573281 0.28668186 0.071103752 -3.3016976e+38
2.4562938 0.28195637 0.07149291 -3.2884577e+38
2.4470699 0.27637586 0.074775279 -3.2618735e+38
2.4542255 0.27251664 0.072271347 -3.235237e+38
2.4572864 0.26821682 0.071214139 -3.1953606e+38
2.4613709 0.2640076 0.069795251 -3.2218411e+38
2.4613605 0.25938386 0.069822907 -3.2749066e+38
2.4797771 0.2565245 0.063341856 -3.288251e+38
2.4756718 0.25148258 0.064816058 -3.2882508e+38
2.4797561 0.24720989 0.063397527 -3.2616662e+38
2.4797456 0.24255259 0.063425303 -3.2217892e+38
2.4797351 0.2378953 0.063453197 -3.1951002e+38
2.4746063 0.23279452 0.065288782 -3.1684629e+38
2.4561689 0.22658367 0.071823835 -3.1684629e+38
2.4592295 0.22222415 0.070766926 -3.1551183e+38
2.4653614 0.21810274 0.068625391 -3.1151895e+38
2.4766116 0.21436507 0.064676702 -3.0486762e+38
2.4766011 0.20971335 0.064704478 -3.0485715e+38
2.4591877 0.20374417 0.070877314 -3.0751029e+38
2.458154 0.19904856 0.071266353 -3.0617066e+38
2.460191 0.19457796 0.070571005 -3.0881354e+38
2.4622278 0.19009991 0.069875896 -3.0748433e+38
2.457099 0.18512414 0.071710646 -3.0748437e+38
2.4519701 0.18016705 0.073545277 -3.0349667e+38
2.457078 0.17589161 0.07176584 -2.9419722e+38
2.4754934 0.17243519 0.065288365 -2.9152834e+38
2.4652464 0.16715966 0.068929851 -2.8752502e+38
2.4457867 0.16137512 0.075823545 -2.8618018e+38
2.4406583 0.1564852 0.0776577 -2.888179e+38
2.4406478 0.15189879 0.077685118 -2.8748344e+38
2.4416611 0.14736751 0.077351153 -2.8748857e+38
2.4590523 0.1436843 0.071236253 -2.8748857e+38
2.4590418 0.1390643 0.07126379 -2.8615413e+38
2.4416299 0.13360268 0.077433407 -2.8483012e+38
2.4324069 0.12858564 0.080712378 -2.8085292e+38
2.4364913 0.12419727 0.079294741 -2.8485105e+38
2.4385281 0.11970613 0.078599572 -2.8751997e+38
2.4385178 0.11512346 0.07862699 -2.8884912e+38
2.4559085 0.11122382 0.072513223 -2.9283139e+38
2.4415679 0.10607305 0.077597916 -2.9416585e+38
2.4446282 0.10159412 0.076541841 -2.9682966e+38
2.4456415 0.097034842 0.076207995 -3.021674e+38
2.445631 0.0924391 0.076235414 -3.0617583e+38
2.4456208 0.087843366 0.076262951 -3.0751029e+38
2.4456103 0.083247639 0.076290369 -3.0751031e+38
2.4456 0.078651898 0.076317906 -3.0884475e+38
2.444566 0.074030913 0.076706469 -3.1017398e+38
2.4425085 0.069390275 0.077456176 -3.1283765e+38
2.4609222 0.065187484 0.070983291 -3.1682018e+38
2.4609118 0.060563758 0.071010947 -3.1815462e+38
2.461925 0.055957824 0.070677578 -3.1815984e+38
2.4619145 0.051332235 0.070705116 -3.2083395e+38
2.4639513 0.046734758 0.070010424 -3.2216328e+38
