# .PCD v0.7 - Point Cloud Data file format
VERSION 0.7
FIELDS x y z rgb
SIZE 4 4 4 4
TYPE F F F F
COUNT 1 1 1 1
WIDTH 1253
HEIGHT 1
VIEWPOINT 0 0 0 1 0 0 0
POINTS 1253
DATA ascii
0.00033864498 0.20340854 2.0183265 nan
0.00037941456 0.19863945 2.0183549 nan
0.00042042256 0.19387037 2.0183835 nan
0.00046119213 0.18910122 2.0184119 nan
0.020004125 0.18876314 2.0266767 nan
-0.010183482 0.17714649 2.0139389 nan
-0.0062421844 0.17326915 2.0156145 nan
-0.0042511509 0.16894507 2.0164666 nan
-0.0022598791 0.16461349 2.017319 nan
0.018259855 0.16430664 2.0259964 nan
0.026102634 0.16118675 2.02932 nan
0.026143881 0.15636915 2.0293489 nan
0.026185127 0.15155154 2.0293777 nan
0.026226612 0.14673388 2.0294065 nan
0.026267858 0.14191633 2.0294352 nan
0.026309105 0.13709867 2.029464 nan
0.026350589 0.13228106 2.0294929 nan
0.023465963 0.12687159 2.0282857 nan
0.02545795 0.12245041 2.0291386 nan
0.025499197 0.11763465 2.0291672 nan
0.027491184 0.1132023 2.03002 nan
0.027532669 0.10838282 2.0300488 nan
0.027573915 0.10356337 2.0300775 nan
0.037369341 0.10060483 2.0342267 nan
0.024730297 0.093371689 2.0288992 nan
0.024771543 0.08855781 2.0289278 nan
0.022862049 0.083382934 2.0281324 nan
0.024854036 0.07893005 2.0289855 nan
0.024895282 0.07411617 2.0290141 nan
0.021034809 0.068602711 2.0273945 nan
0.014247031 0.062585026 2.0245388 nan
0.012337298 0.057449277 2.0237432 nan
0.0084763477 0.051982429 2.0221233 nan
0.014370293 0.048204925 2.0246246 nan
0.037825912 0.047385331 2.0345447 nan
0.035915941 0.042219814 2.0337491 nan
0.0037620973 0.032044526 2.0201769 nan
-0.0030263949 0.026151894 2.0173199 nan
0.016527506 0.02455431 2.0255921 nan
-0.016603855 0.014444916 2.0116062 nan
-0.020465998 0.0090937298 2.0099857 nan
-0.020425467 0.0043675578 2.0100138 nan
0.0040076687 0.0034075356 2.0203478 nan
0.012830348 -2.6228352e-05 2.0240865 nan
0.018725725 -0.0039343261 2.0265887 nan
0.018766971 -0.008735152 2.0266173 nan
0.018807979 -0.013535978 2.0266461 nan
0.01689777 -0.01861948 2.0258501 nan
0.022793861 -0.022579821 2.0283527 nan
0.020883175 -0.027663263 2.0275567 nan
0.040441126 -0.029753389 2.0358319 nan
0.042434543 -0.034327541 2.0366855 nan
0.040524095 -0.039437119 2.0358896 nan
0.042517751 -0.044018749 2.0367434 nan
0.044511408 -0.04860783 2.0375969 nan
0.021130415 -0.056490574 2.027729 nan
0.020195814 -0.06141967 2.0273454 nan
0.022188993 -0.065977007 2.028199 nan
0.017350288 -0.07138744 2.0261655 nan
0.018367382 -0.07606557 2.0266066 nan
0.022312494 -0.080396235 2.028285 nan
0.021377655 -0.08531788 2.0279014 nan
0.021418901 -0.090122432 2.02793 nan
0.022436233 -0.094815522 2.0283711 nan
0.024429651 -0.099402726 2.0292249 nan
0.024470897 -0.10421288 2.0292535 nan
0.024512144 -0.10902303 2.0292823 nan
0.02455339 -0.11383319 2.0293109 nan
0.024594637 -0.11864334 2.0293398 nan
0.024635883 -0.1234535 2.0293684 nan
0.019796224 -0.12875566 2.0273345 nan
0.019837471 -0.13355649 2.0273633 nan
0.019878717 -0.1383573 2.0273919 nan
0.019919725 -0.14315814 2.0274205 nan
0.019960972 -0.14795895 2.0274494 nan
0.024883362 -0.15231439 2.029541 nan
0.026877018 -0.15695012 2.030395 nan
0.026918503 -0.161764 2.0304236 nan
0.027936073 -0.16649441 2.0308652 nan
0.048479885 -0.1695963 2.0395594 nan
0.04852137 -0.17445122 2.0395885 nan
0.045634121 -0.17953978 2.0383794 nan
0.045675844 -0.18438913 2.0384085 nan
0.045717329 -0.18923846 2.0384374 nan
0.045759052 -0.19408779 2.0384665 nan
0.045800537 -0.19893712 2.0384953 nan
0.04584226 -0.20378646 2.0385244 nan
0.046860069 -0.20856909 2.0389659 nan
0.046901792 -0.21342029 2.038995 nan
0.02546105 -0.2196565 2.0299435 nan
0.028431745 -0.22428337 2.0312104 nan
0.028472992 -0.22909909 2.0312393 nan
0.039255947 -0.23328394 2.0358088 nan
0.042226881 -0.23795375 2.037076 nan
0.042268366 -0.24279562 2.0371048 nan
0.02961454 -0.24831033 2.0317671 nan
0.029656025 -0.25312796 2.031796 nan
0.029697271 -0.2579456 2.0318248 nan
0.029738517 -0.2627632 2.0318534 nan
0.029780002 -0.26758081 2.0318823 nan
0.027867885 -0.27248326 2.0310855 nan
0.0083762119 -0.27810842 2.0228565 nan
0.0064636185 -0.28296238 2.0220592 nan
0.0016213369 -0.2879194 2.0200231 nan
0.019242855 -0.29205349 2.0274842 nan
0.023190828 -0.29671818 2.0291646 nan
0.025185676 -0.30146027 2.0300193 nan
0.046715587 -0.30562243 2.0391328 nan
0.050664276 -0.31036174 2.0408137 nan
0.071218103 -0.31468019 2.0495152 nan
0.05563125 -0.31995648 2.0429368 nan
0.056650013 -0.32480073 2.0433788 nan
0.056691736 -0.3296687 2.0434079 nan
0.054779857 -0.33457303 2.0426109 nan
0.054821581 -0.33943731 2.04264 nan
0.034348816 -0.34460485 2.0339952 nan
0.034390062 -0.34942991 2.034024 nan
0.035408348 -0.35424429 2.0344658 nan
0.054988474 -0.35889435 2.0427563 nan
0.054053158 -0.36376557 2.0423722 nan
0.053117603 -0.36863309 2.0419881 nan
0.032642931 -0.3735618 2.0333419 nan
0.032684177 -0.37838313 2.0333707 nan
-0.006354718 -0.38318509 2.0168743 -3.0881419e+38
-0.010222106 -0.38792238 2.01525 -2.9815414e+38
0.0034969759 -0.39272067 2.0210626 -3.0086434e+38
-0.04075709 0.47119594 1.9955194 nan
-0.036819845 0.46785039 1.9971845 nan
-0.038728148 0.46247774 1.9963939 nan
-0.04063645 0.45711249 1.9956036 nan
-0.036698729 0.45374453 1.9972689 nan
-0.035684258 0.44937235 1.9977062 nan
-0.035643965 0.44466859 1.9977343 nan
-0.033655077 0.44061685 1.9985812 nan
-0.032640129 0.43623352 1.9990184 nan
-0.020907788 0.43539166 2.0039587 nan
-0.019892601 0.43098027 2.0043964 nan
-0.017903475 0.42688376 2.0052435 nan
-0.020785956 0.42119634 2.0040436 nan
-0.02269402 0.41583484 2.0032532 nan
-0.02167931 0.41141969 2.0036907 nan
-0.020664362 0.40700096 2.0041285 nan
-0.020623831 0.40226924 2.0041566 nan
-0.01863399 0.39815211 2.0050037 nan
-0.014695554 0.39463866 2.0066698 nan
-0.013680129 0.3901993 2.0071077 nan
-0.0029198218 0.38877398 2.0116401 nan
-0.0028788138 0.38400865 2.0116687 nan
-0.024278549 0.37268633 2.0026884 nan
-0.037882 0.36381561 1.9969835 nan
-0.037841707 0.35911739 1.9970117 nan
-0.037801415 0.35441917 1.9970398 nan
-0.020217804 0.35495138 2.0044394 nan
-0.016278652 0.35137433 2.0061059 nan
-0.017212776 0.34634829 2.0057247 nan
-0.019121079 0.34104097 2.0049338 nan
-0.014207273 0.33772296 2.00701 nan
-0.0034448195 0.33607364 2.0115438 nan
-0.0034038115 0.33131009 2.0115724 nan
-0.0033630419 0.32654655 2.0116007 nan
-0.023792176 0.3159945 2.0030272 nan
-0.021801857 0.31181777 2.0038748 nan
-0.021761326 0.30708969 2.0039029 nan
-0.021720795 0.30236161 2.0039313 nan
-0.021680264 0.29763359 2.0039594 nan
-0.020665077 0.29317176 2.0043974 nan
-0.00015249729 0.29399544 2.0130291 nan
-0.00011148929 0.28922641 2.0130577 nan
0.0038288545 0.28550017 2.014725 nan
0.0038698625 0.28072357 2.0147533 nan
0.001960845 0.275433 2.0139625 nan
-0.011647134 0.26708847 2.0082548 nan
-0.015506416 0.2613287 2.006644 nan
-0.019365696 0.25558388 2.0050333 nan
-0.012499957 0.25259882 2.00793 nan
-0.014409213 0.24735856 2.0071387 nan
-0.025093703 0.23991376 2.0026593 nan
-0.020178227 0.23641276 2.0047367 nan
-0.018187432 0.23216707 2.0055845 nan
-0.021072058 0.22671282 2.0043833 nan
-0.0064055012 0.22555971 2.0105591 nan
-0.004414706 0.22127664 2.0114074 nan
-0.004373698 0.21651685 2.0114357 nan
-0.0043329285 0.21175706 2.0114641 nan
-0.0013667631 0.20768994 2.0127223 nan
0.00062474731 0.20338255 2.0135705 nan
0.00066551688 0.19861346 2.0135992 nan
0.00070652488 0.19384438 2.0136275 nan
-0.001203208 0.18862849 2.0128362 nan
0.018342109 0.18829393 2.0210636 nan
-0.004047303 0.17843872 2.0116632 nan
-0.004006295 0.17367893 2.0116918 nan
-0.0020147848 0.16935098 2.0125401 nan
0.0009518576 0.16522974 2.0137987 nan
0.024399849 0.16555369 2.0236671 nan
0.026391597 0.16116053 2.0245159 nan
0.026433082 0.15634292 2.0245447 nan
0.026474329 0.15152532 2.0245733 nan
0.026515575 0.14670765 2.0246022 nan
0.0070491745 0.13783246 2.0164299 nan
0.0070901825 0.13305211 2.0164585 nan
0.0071311905 0.12827182 2.0164871 nan
0.027656408 0.12763453 2.0251274 nan
0.027697893 0.12281507 2.0251563 nan
0.027739139 0.11799556 2.0251851 nan
0.027780386 0.11317608 2.025214 nan
0.027821871 0.1083566 2.0252426 nan
0.027863117 0.10353714 2.0252714 nan
0.024002405 0.097973287 2.0236597 nan
0.025019022 0.093345493 2.0240986 nan
0.025060268 0.088531613 2.0241275 nan
0.023150535 0.083356738 2.0233357 nan
0.025142999 0.078903854 2.0241849 nan
0.025184246 0.074089974 2.0242138 nan
0.023274275 0.068926305 2.023422 nan
0.014534564 0.062558919 2.0197587 nan
0.012624831 0.0574232 2.0189667 nan
0.0087631652 0.051956382 2.0173545 nan
0.012706847 0.047843959 2.0190241 nan
0.014699073 0.043385472 2.0198731 nan
-0.002822547 0.035645541 2.0125165 nan
-0.0047332332 0.030562101 2.0117245 nan
-0.00078907487 0.026445894 2.0133941 nan
-0.00074830529 0.02168241 2.0134225 nan
-0.0094894459 0.015512792 2.009758 nan
-0.0094486764 0.010766087 2.0097864 nan
-0.01135984 0.0057143248 2.0089939 nan
0.01502809 0.0050386167 2.0201025 nan
0.015069098 0.00024527081 2.0201311 nan
0.011206956 -0.0051357173 2.018518 nan
0.013199897 -0.0096315462 2.0193675 nan
0.011288972 -0.014707508 2.0185752 nan
0.0044985726 -0.020482542 2.0157309 nan
0.034793466 -0.020932676 2.0284829 nan
0.034834951 -0.025763335 2.0285118 nan
0.034876436 -0.030594023 2.0285406 nan
0.040773243 -0.03462163 2.0310323 nan
0.042766899 -0.039199505 2.0318823 nan
0.022312494 -0.046777491 2.0232909 nan
0.024305673 -0.051327471 2.0241406 nan
0.021418663 -0.05651674 2.0229378 nan
0.020484062 -0.061445806 2.0225561 nan
0.021501156 -0.06612584 2.0229952 nan
0.024470659 -0.070568025 2.0242555 nan
0.024511905 -0.07537818 2.0242844 nan
0.024553152 -0.080188364 2.024313 nan
0.024594398 -0.084998488 2.0243418 nan
0.024635645 -0.089808643 2.0243704 nan
0.024676891 -0.094618767 2.0243993 nan
0.024718137 -0.099428922 2.0244281 nan
0.024759384 -0.10423908 2.0244567 nan
0.02480063 -0.10904923 2.0244856 nan
0.024841877 -0.11385939 2.0245142 nan
0.024883362 -0.11866951 2.024543 nan
0.024924608 -0.12347969 2.0245717 nan
0.020084472 -0.1287818 2.022547 nan
0.02012548 -0.13358262 2.0225759 nan
0.020166727 -0.13838343 2.0226045 nan
0.020207973 -0.14318427 2.0226331 nan
0.023178192 -0.14771231 2.0238941 nan
0.025172086 -0.15234058 2.0247443 nan
0.025213333 -0.15715073 2.0247729 nan
0.025254579 -0.16196088 2.0248017 nan
0.025295826 -0.16677102 2.0248303 nan
0.048771232 -0.16962273 2.034718 nan
0.048812717 -0.17447765 2.0347469 nan
0.04592523 -0.17956619 2.0335436 nan
0.045966715 -0.18441553 2.0335727 nan
0.046008438 -0.18926486 2.0336015 nan
0.046049923 -0.19411419 2.0336306 nan
0.046091646 -0.19896352 2.0336595 nan
0.046133131 -0.20381287 2.0336885 nan
0.046174854 -0.2086622 2.0337174 nan
0.026685091 -0.21480772 2.0255289 nan
0.025749536 -0.21968269 2.0251467 nan
0.025790783 -0.22449285 2.0251753 nan
0.025832029 -0.22930297 2.0252042 nan
0.025873275 -0.23411313 2.0252328 nan
0.033727735 -0.23847944 2.0285492 nan
0.036699146 -0.24314368 2.0298107 nan
0.04748401 -0.24740511 2.0343602 nan
0.049478859 -0.25215653 2.0352111 nan
0.029986473 -0.25797182 2.0270205 nan
0.030027719 -0.26278943 2.0270493 nan
0.028115602 -0.26769561 2.0262561 nan
0.025226684 -0.27263671 2.0250518 nan
0.027221533 -0.27736393 2.0259025 nan
0.0096803615 -0.28287232 2.0185328 nan
0.0038608026 -0.28787166 2.0160949 nan
0.019530626 -0.29207963 2.0227003 nan
0.021525474 -0.29681051 2.0235512 nan
0.025474163 -0.30148643 2.0252242 nan
0.047006458 -0.30564883 2.034297 nan
0.050955623 -0.31038821 2.0359704 nan
0.077373356 -0.31455308 2.0470996 nan
0.055923313 -0.31998301 2.038084 nan
0.056942075 -0.32482722 2.0385244 nan
0.056983799 -0.32969522 2.0385535 nan
0.035532326 -0.33496279 2.029537 nan
0.033619732 -0.33982232 2.0287435 nan
0.033661216 -0.34464553 2.0287721 nan
0.032725424 -0.34948131 2.0283899 nan
0.033743948 -0.35429198 2.0288298 nan
0.05430302 -0.35892966 2.0374942 nan
0.054344743 -0.36379206 2.0375233 nan
0.051455587 -0.36866975 2.0363188 nan
0.051497072 -0.37352654 2.0363476 nan
0.051538795 -0.37838334 2.0363767 nan
-0.0060698078 -0.38321093 2.0121408 -3.221634e+38
0.0047193482 -0.38798359 2.0166934 -2.9949349e+38
0.0067144348 -0.39275929 2.0175443 -3.0086951e+38
-0.042424113 0.47049218 1.9900231 nan
-0.04238382 0.46580142 1.9900513 nan
-0.042343527 0.46111071 1.9900794 nan
-0.046200663 0.45508605 1.9884777 nan
-0.040314347 0.45239252 1.9909503 nan
-0.036376387 0.44901705 1.9926081 nan
-0.033412844 0.44529873 1.9938586 nan
-0.028500466 0.44222134 1.995924 nan
-0.028459935 0.43750447 1.9959521 nan
-0.020623831 0.43536586 1.9992402 nan
-0.017659811 0.43159539 2.0004909 nan
-0.017619042 0.42685795 2.0005193 nan
-0.0156292 0.42275393 2.0013626 nan
-0.017537979 0.41738325 2.0005758 nan
-0.01749721 0.41264582 2.0006042 nan
-0.011609226 0.40977502 2.0030777 nan
-0.0096193841 0.40564489 2.0039213 nan
-0.011527686 0.40027791 2.0031345 nan
-0.014410882 0.39461279 2.00194 nan
-0.013395458 0.39017344 2.0023761 nan
0.0061381771 0.39146376 2.0105565 nan
0.0061791851 0.38668162 2.0105851 nan
-0.022045283 0.37325662 1.9987924 nan
-0.012257962 0.37149018 2.002897 nan
-0.037559658 0.35909176 1.9923265 nan
-0.037519366 0.35439354 1.9923546 nan
-0.019934086 0.35492557 1.9997208 nan
-0.014044671 0.35192597 2.0021951 nan
-0.014978795 0.34689617 2.001816 nan
-0.013963371 0.34244007 2.0022519 nan
-0.013922601 0.33769709 2.0022802 nan
-0.0031589556 0.33604771 2.0067935 nan
-0.0031179476 0.33128417 2.0068221 nan
-0.003077178 0.32652062 2.0068505 nan
-0.02155867 0.31652004 1.9991317 nan
-0.021518139 0.31179202 1.9991598 nan
-0.021477608 0.30706394 1.9991882 nan
-0.021437077 0.30233586 1.9992163 nan
-0.021396546 0.29760784 1.9992447 nan
-0.020381121 0.29314601 1.9996805 nan
0.005983205 0.29555619 2.0107203 nan
0.006024213 0.29077584 2.0107489 nan
0.0041154339 0.28547412 2.0099616 nan
0.0041564419 0.28069752 2.0099902 nan
0.0022471857 0.27540702 2.009203 nan
-0.013312488 0.26655239 2.0027053 nan
-0.020097164 0.26003659 1.9998784 nan
-0.021031527 0.25505537 1.9994988 nan
-0.020990996 0.25032729 1.9995272 nan
-0.021925597 0.24535155 1.9991474 nan
-0.043337733 0.23521805 1.990201 nan
-0.038422018 0.23175257 1.9922688 nan
-0.020828871 0.23141509 1.9996402 nan
-0.024688868 0.22572625 1.9980364 nan
-0.0080703786 0.22505713 2.0050004 nan
-0.00217834 0.22172356 2.0074768 nan
0.00078830245 0.21766388 2.0087292 nan
-0.004047303 0.21173114 2.0067177 nan
-0.0010806608 0.20766395 2.0079701 nan
0.0009108496 0.20335656 2.0088148 nan
0.0009518576 0.19858748 2.0088432 nan
0.00099262712 0.19381839 2.0088718 nan
-0.00091734406 0.18860251 2.0080841 nan
0.018630357 0.18826777 2.0162742 nan
0.015745493 0.18280607 2.0150785 nan
0.013835759 0.17757332 2.014291 nan
0.013876767 0.17277992 2.0143199 nan
0.018795105 0.16905701 2.0163891 nan
0.024688574 0.16552746 2.0188665 nan
0.026680799 0.1611343 2.0197117 nan
0.0072132065 0.15214729 2.0115771 nan
0.0072542145 0.147367 2.0116057 nan
0.0072952225 0.14258671 2.0116343 nan
0.0073362305 0.13780642 2.011663 nan
0.014205546 0.13443315 2.014549 nan
0.014246793 0.1296398 2.0145776 nan
0.02794561 0.1276083 2.0203214 nan
0.027987095 0.12278885 2.0203502 nan
0.028028341 0.11796933 2.0203791 nan
0.028069587 0.11314985 2.0204077 nan
0.028111072 0.10833037 2.0204365 nan
0.031079145 0.10407472 2.0216901 nan
0.027217956 0.098505318 2.0200858 nan
0.025307985 0.093319297 2.0192981 nan
0.025349231 0.088505417 2.0193269 nan
0.02343926 0.083330572 2.018539 nan
0.025431724 0.078877658 2.0193844 nan
0.025473209 0.074063778 2.0194132 nan
0.022587391 0.068725228 2.0182168 nan
0.014822335 0.062532842 2.0149786 nan
0.012912125 0.057397123 2.0141904 nan
0.0090502212 0.051930364 2.0125856 nan
0.013969989 0.047985282 2.0146561 nan
0.014010997 0.043193784 2.0146847 nan
-0.00058498856 0.035946991 2.0085869 nan
-0.0044478462 0.030536203 2.0069816 nan
-0.00050344941 0.026419966 2.0086439 nan
-0.00046244144 0.021656482 2.0086722 nan
-0.0013977576 0.016736774 2.0082924 nan
-0.0023328352 0.011820732 2.0079122 nan
-0.011075168 0.005688516 2.0042641 nan
0.015315623 0.0050125397 2.0153224 nan
0.037803978 0.0036406792 2.0247469 nan
0.031989664 -0.0020769858 2.0223246 nan
0.002751441 -0.011252942 2.0100973 nan
0.0018163633 -0.016165199 2.0097172 nan
0.020401569 -0.018247785 2.0175083 nan
0.026298853 -0.022213848 2.0199885 nan
0.026340099 -0.027027728 2.0200174 nan
0.026381345 -0.03184161 2.020046 nan
0.027398916 -0.036521677 2.0204835 nan
0.04110536 -0.039489869 2.0262327 nan
0.021624656 -0.046933804 2.0180891 nan
0.024594398 -0.051353637 2.0193436 nan
0.041229814 -0.054015461 2.0263197 nan
0.02077231 -0.061471943 2.0177667 nan
0.021789404 -0.066151977 2.018204 nan
0.022806974 -0.070835739 2.0186415 nan
0.02480063 -0.075404346 2.0194874 nan
0.024841877 -0.08021453 2.0195162 nan
0.024883123 -0.085024655 2.0195448 nan
0.02492437 -0.089834809 2.0195737 nan
0.0054400875 -0.096873879 2.0114276 nan
0.0054808571 -0.10164672 2.0114563 nan
0.025048109 -0.10426524 2.01966 nan
0.025089355 -0.10907543 2.0196886 nan
0.025130602 -0.11388558 2.0197175 nan
0.025171848 -0.11869571 2.0197461 nan
0.025213094 -0.12350589 2.0197749 nan
0.02232513 -0.12861118 2.0185773 nan
0.022366377 -0.13341573 2.0186059 nan
0.020454736 -0.13840957 2.017817 nan
0.020495983 -0.14321041 2.0178456 nan
0.025419326 -0.14755663 2.0199187 nan
0.025460573 -0.15236677 2.0199473 nan
0.025501819 -0.15717693 2.0199761 nan
0.025543066 -0.16198708 2.0200047 nan
0.025584312 -0.16679722 2.0200336 nan
0.051015466 -0.16948597 2.0306942 nan
0.052033514 -0.17426491 2.0311322 nan
0.05012235 -0.17928116 2.0303435 nan
0.046257824 -0.18444194 2.0287368 nan
0.046299309 -0.18929127 2.0287657 nan
0.048293918 -0.19399609 2.0296125 nan
0.046382517 -0.19898993 2.0288236 nan
0.04642424 -0.20383927 2.0288527 nan
0.046465725 -0.2086886 2.0288815 nan
0.025997015 -0.21489872 2.0203211 nan
0.026038261 -0.21970886 2.0203497 nan
0.026079508 -0.22451901 2.0203786 nan
0.026120754 -0.22932917 2.0204072 nan
0.023231598 -0.23431134 2.0192089 nan
0.024249883 -0.2390604 2.0196466 nan
0.031128498 -0.24349159 2.0225389 nan
0.049728721 -0.24732804 2.0303407 nan
0.049770206 -0.25218296 2.0303698 nan
0.049811929 -0.25703788 2.0303988 nan
0.049853653 -0.26189283 2.0304277 nan
0.049895138 -0.26674777 2.0304568 nan
0.030399414 -0.27245086 2.0223026 nan
0.026533218 -0.27743065 2.0206947 nan
0.025597664 -0.28227949 2.0203145 nan
0.021731229 -0.28723502 2.0187063 nan
0.026656957 -0.29186112 2.020781 nan
0.028652044 -0.29660511 2.0216281 nan
0.034555286 -0.30123168 2.0241122 nan
0.059998125 -0.30529371 2.0347812 nan
0.071763605 -0.30983752 2.0397213 nan
0.075713724 -0.31463104 2.0413876 nan
0.056215376 -0.32000947 2.0332315 nan
0.057234138 -0.32485372 2.0336697 nan
0.056298822 -0.32974172 2.0332897 nan
0.035822004 -0.33498907 2.0247235 nan
0.033909172 -0.33984858 2.0239336 nan
0.032973379 -0.34468621 2.0235531 nan
0.033014625 -0.34950757 2.023582 nan
0.034033388 -0.35431823 2.0240202 nan
0.034074634 -0.35914144 2.024049 nan
0.034116119 -0.36396465 2.0240779 nan
0.031225773 -0.36880314 2.0228784 nan
0.031267017 -0.37362075 2.0229073 nan
-0.0058256672 -0.37849006 2.0073788 nan
-0.0057848976 -0.38323677 2.0074072 -3.3147834e+38
0.0079370448 -0.38801667 2.0131674 -3.0080183e+38
0.0079780528 -0.39278951 2.013196 -2.9819541e+38
-0.025536684 0.47150844 1.9922676 nan
-0.027445225 0.46611524 1.9914849 nan
-0.045919806 0.4550606 1.9838073 nan
-0.040032774 0.45236701 1.9862688 nan
-0.036094099 0.44899148 1.9879191 nan
-0.036053807 0.44428951 1.9879472 nan
-0.028217224 0.44219565 1.9912202 nan
-0.028176932 0.43747878 1.9912484 nan
-0.020339875 0.43534011 1.9945214 nan
-0.018350033 0.43124914 1.9953611 nan
-0.017334847 0.4268322 1.995795 nan
-0.015344768 0.42272812 1.9966345 nan
-0.017253546 0.4173575 1.9958515 nan
-0.018187432 0.41230714 1.9954741 nan
-0.013273626 0.40912706 1.9975309 nan
-0.0093342355 0.40561903 1.999182 nan
-0.011242776 0.4002521 1.998399 nan
-0.01412621 0.39458698 1.9972103 nan
-0.013110786 0.39014763 1.9976444 nan
0.0064252331 0.39143771 2.0057876 nan
0.0064662411 0.38665557 2.0058162 nan
-0.014938264 0.37531698 1.996918 nan
-0.0031999636 0.37412977 2.0018156 nan
-0.019731192 0.36436337 1.9949455 nan
-0.017740874 0.36021638 1.9957855 nan
-0.017700104 0.35548091 1.9958138 nan
-0.013760238 0.35190016 1.9974654 nan
-0.016644148 0.34629673 1.9962761 nan
-0.013678699 0.34241426 1.9975221 nan
-0.013638168 0.33767128 1.9975502 nan
-0.0028730917 0.33602178 2.0020432 nan
-0.0028320837 0.33125824 2.0020719 nan
-0.0027913142 0.32649469 2.0021002 nan
-0.020300297 0.31676984 1.9948225 nan
-0.021234421 0.31176627 1.9944448 nan
-0.02119389 0.30703819 1.9944732 nan
-0.017253308 0.3033902 1.996125 nan
-0.01916304 0.29811841 1.9953415 nan
-0.021072296 0.29285401 1.9945579 nan
0.0062700226 0.2955302 2.0059533 nan
0.0063110306 0.29074985 2.0059817 nan
0.0034268808 0.28518742 2.0047922 nan
-0.00043263912 0.2793774 2.003197 nan
-0.0013670016 0.27435321 2.0028193 nan
-0.012052684 0.26678169 1.9983816 nan
-0.016887812 0.26077056 1.9963799 nan
-0.021722941 0.25477827 1.9943779 nan
-0.020707278 0.25030154 1.9948123 nan
-0.020666746 0.24557352 1.9948404 nan
-0.042081505 0.23543835 1.985935 nan
-0.024486689 0.23514175 1.9932725 nan
-0.020545153 0.23138934 1.9949253 nan
-0.023430495 0.22594076 1.9937351 nan
-0.0058347271 0.22550792 2.0010734 nan
-0.00091734406 0.22193414 2.0031326 nan
-0.017456917 0.21318084 1.9962566 nan
-0.022293238 0.20728368 1.9942541 nan
-0.001769929 0.20740712 2.0028119 nan
-0.00075378892 0.20287269 2.0032465 nan
-0.0016883898 0.19788015 2.0028689 nan
-0.0016473818 0.19311666 2.0028973 nan
-0.016238121 0.18500239 1.9968326 nan
0.0033112478 0.18469721 2.0049853 nan
0.0053032353 0.18036371 2.0058262 nan
0.0082708308 0.17624044 2.0070736 nan
0.0083118388 0.17145824 2.0071023 nan
0.016156765 0.16838866 2.0103807 nan
0.023026558 0.16507685 2.0132535 nan
0.026969763 0.16110808 2.0149074 nan
0.007500024 0.15212131 2.0068102 nan
0.007541032 0.14734101 2.0068388 nan
0.00758204 0.14256072 2.0068674 nan
0.020305963 0.14041758 2.0121782 nan
0.02815208 0.13722104 2.0154576 nan
0.028193565 0.13240153 2.0154865 nan
0.028234811 0.12758201 2.0155153 nan
0.028276058 0.12276256 2.0155442 nan
0.028317543 0.11794308 2.0155728 nan
0.029334398 0.11331525 2.0160081 nan
0.029375644 0.10849392 2.016037 nan
0.031368822 0.10404843 2.0168786 nan
0.031410068 0.099223375 2.0169075 nan
0.02559671 0.093293071 2.0144975 nan
0.025638195 0.088479191 2.0145264 nan
0.022752138 0.083123893 2.0133357 nan
0.025720688 0.078851432 2.0145838 nan
0.022834631 0.073507339 2.0133932 nan
0.01897225 0.067999542 2.0117958 nan
0.013158412 0.062160667 2.0093856 nan
0.0044165566 0.055830773 2.0057554 nan
-0.00042191028 0.050211545 2.0037513 nan
0.013281674 0.047791805 2.0094714 nan
0.015274377 0.043333288 2.010313 nan
-0.00029912472 0.035921033 2.0038366 nan
-0.0022105265 0.030833898 2.003052 nan
0.006614299 0.027513681 2.0067396 nan
0.0076311543 0.022895185 2.0071747 nan
-0.00013580799 0.01686701 2.0039506 nan
-9.5038406e-05 0.012103526 2.003979 nan
-0.0068866299 0.0062726415 2.0011611 nan
0.017555567 0.0052876151 2.0113554 nan
0.040046066 0.0039118207 2.0207374 nan
0.031303018 -0.0022501075 2.0171063 nan
0.022559496 -0.0083785076 2.0134749 nan
0.020648571 -0.013471248 2.0126903 nan
0.021665664 -0.018132659 2.0131257 nan
0.024635406 -0.022518905 2.0143745 nan
0.024676653 -0.027329059 2.0144033 nan
0.024717899 -0.032139216 2.014432 nan
0.020854564 -0.037484679 2.0128338 nan
0.020895572 -0.042287383 2.0128624 nan
0.033627599 -0.045398805 2.0181792 nan
0.045384258 -0.048687015 2.0230894 nan
0.041520447 -0.054041807 2.0214913 nan
0.022036644 -0.061373595 2.0133841 nan
0.02207789 -0.066178143 2.013413 nan
0.023095461 -0.070861936 2.0138483 nan
0.025089117 -0.075430542 2.0146906 nan
0.025130602 -0.080240726 2.0147195 nan
0.025171848 -0.085050851 2.0147481 nan
0.0056854202 -0.092127025 2.0066395 nan
0.0057264282 -0.096899867 2.0066681 nan
0.011625857 -0.1010153 2.0091381 nan
0.011666865 -0.10579932 2.0091665 nan
0.0097549865 -0.11079502 2.0083814 nan
0.0078433463 -0.11578324 2.007596 nan
0.0059309914 -0.12076405 2.0068107 nan
0.025501819 -0.12353206 2.0149782 nan
0.025543066 -0.12834221 2.0150068 nan
0.0060537769 -0.13508253 2.0068963 nan
0.0031653356 -0.14013931 2.0057039 nan
0.0032063436 -0.14490654 2.0057323 nan
0.025708051 -0.14758281 2.0151219 nan
0.025749298 -0.15239295 2.0151505 nan
0.025790544 -0.15720311 2.0151794 nan
0.025831791 -0.16201326 2.015208 nan
0.025873037 -0.1668234 2.0152369 nan
0.046424001 -0.16992034 2.023814 nan
0.048418611 -0.17461026 2.024657 nan
0.04650721 -0.179619 2.0238719 nan
0.046548694 -0.18446834 2.0239007 nan
0.046590418 -0.18931767 2.0239298 nan
0.046631902 -0.194167 2.0239589 nan
0.046673626 -0.19901633 2.0239878 nan
0.046715111 -0.20386568 2.0240169 nan
0.046756834 -0.20871501 2.0240457 nan
0.026285501 -0.2149249 2.0155244 nan
0.026326748 -0.21973506 2.015553 nan
0.026368232 -0.22454521 2.0155818 nan
0.024455639 -0.22947374 2.0147963 nan
0.044034094 -0.23313361 2.022969 nan
0.045052379 -0.23792192 2.0234051 nan
0.049001306 -0.24255314 2.025063 nan
0.050020069 -0.24735445 2.0254991 nan
0.050061554 -0.2522094 2.0255282 nan
0.050103277 -0.25706434 2.0255573 nan
0.050145 -0.26191926 2.0255864 nan
0.050186485 -0.26677418 2.0256152 nan
0.050228208 -0.27162912 2.0256443 nan
0.026821943 -0.27745685 2.015898 nan
0.026863189 -0.282267 2.0159268 nan
0.022019239 -0.28726116 2.0139189 nan
0.023037525 -0.29202706 2.0143549 nan
0.026986929 -0.29669744 2.0160129 nan
0.035821766 -0.30122676 2.0197079 nan
0.063221782 -0.30523223 2.0311432 nan
0.066194862 -0.310029 2.0323944 nan
0.060374111 -0.31506741 2.0299795 nan
0.0565072 -0.32003596 2.028379 nan
0.056548923 -0.32490212 2.0284081 nan
0.054636568 -0.32980824 2.0276222 nan
0.057609886 -0.33461621 2.0288737 nan
0.054719776 -0.33953303 2.0276802 nan
0.033262581 -0.34471247 2.0187452 nan
0.033304065 -0.34953383 2.018774 nan
0.051913351 -0.35415226 2.026545 nan
0.034364074 -0.3591677 2.0192392 nan
0.034405559 -0.3639909 2.019268 nan
0.031514972 -0.36882937 2.0180743 nan
0.031556219 -0.37364697 2.0181029 nan
-0.0035864401 -0.37851319 2.0034604 nan
-0.0045229481 -0.38326314 2.0030813 -3.3281272e+38
0.010178418 -0.38804743 2.009223 -2.9946732e+38
0.010219187 -0.39282399 2.0092516 -2.941973e+38
-0.022329478 0.4724943 1.9887693 nan
-0.025212673 0.46676034 1.9875865 nan
-0.043689638 0.45570207 1.9799445 nan
-0.031953961 0.45499414 1.984817 nan
-0.024116663 0.45292258 1.9880748 nan
-0.026025204 0.44754255 1.9872956 nan
-0.023060707 0.44379997 1.9885352 nan
-0.021071104 0.43972194 1.9893708 nan
-0.013232856 0.43757021 1.9926291 nan
-0.0024706412 0.43634987 1.9970989 nan
-0.001454978 0.43190295 1.9975312 nan
0.0015099954 0.42808568 1.9987712 nan
-0.00039830685 0.4226833 1.997992 nan
-0.0032817412 0.41697538 1.996809 nan
-0.0012914229 0.41283393 1.9976451 nan
-0.0022253084 0.40775764 1.9972699 nan
-0.0041340874 0.40237749 1.9964907 nan
-0.014816432 0.39425564 1.9920766 nan
-0.012826114 0.39012182 1.9929128 nan
0.0067120506 0.39141172 2.0010188 nan
0.0067530586 0.38662958 2.0010474 nan
0.0087436149 0.38244349 2.0018837 nan
1.0819441e-05 0.37499231 1.9982772 nan
-0.025296597 0.36257195 1.9878035 nan
-0.026231198 0.35755897 1.9874277 nan
-0.0027915526 0.35981333 1.9971507 nan
-0.0027505446 0.35504985 1.997179 nan
-0.0085598519 0.3485654 1.9947839 nan
-0.022169022 0.33982384 1.9891565 nan
-0.022128491 0.33509767 1.9891846 nan
-0.0035623598 0.33571458 1.9968891 nan
-0.0035215903 0.33095288 1.9969175 nan
-0.0025054503 0.32646877 1.99735 nan
-0.0024646807 0.32170534 1.9973783 nan
-0.0024236727 0.3169418 1.997407 nan
-0.020910172 0.3070125 1.9897583 nan
-0.022820143 0.30174434 1.9889784 nan
-0.024729637 0.29648376 1.9881983 nan
-0.019813685 0.29309452 1.990247 nan
0.0065568401 0.29550415 2.0011861 nan
0.0065978481 0.2907238 2.0012147 nan
0.0027380895 0.28490067 1.9996266 nan
-0.00014653683 0.27935141 1.9984429 nan
-0.0010808993 0.27432728 1.9980671 nan
-0.0010401297 0.26956189 1.9980958 nan
-0.0029498625 0.26428998 1.9973159 nan
-0.040945679 0.24972522 1.981581 nan
-0.041880757 0.24478686 1.981205 nan
-0.024284272 0.2445572 1.9885087 nan
-0.039849669 0.23590434 1.9820695 nan
-0.022252945 0.23560381 1.9893734 nan
-0.020261435 0.23136365 1.9902103 nan
-0.022171883 0.22615522 1.98943 nan
-0.00554934 0.22548199 1.9963307 nan
0.0032702398 0.22285384 1.9999976 nan
-0.013271241 0.21409333 1.9931533 nan
-0.020058779 0.20772338 1.9903514 nan
-0.0034352827 0.20691961 1.9972529 nan
-0.0072964714 0.20124388 1.9956641 nan
-0.0072557018 0.19649154 1.9956925 nan
-0.0072149322 0.19173926 1.9957209 nan
-0.015953926 0.18497658 1.9921103 nan
0.0035975885 0.18467122 2.0002258 nan
0.0055900528 0.18033773 2.0010629 nan
0.012460084 0.17708558 2.0039222 nan
0.014452071 0.17272776 2.0047598 nan
0.019371601 0.16900474 2.0068104 nan
0.0252665 0.16547507 2.0092657 nan
0.025307747 0.16066116 2.0092943 nan
0.0058358624 0.15167838 2.0012343 nan
0.014657588 0.14876097 2.0049028 nan
0.026407333 0.14642423 2.0097852 nan
0.028400036 0.14201421 2.0106227 nan
0.028441282 0.13719481 2.0106516 nan
0.028482767 0.1323753 2.0106804 nan
0.028524013 0.12755579 2.0107093 nan
0.02856526 0.12273633 2.0107381 nan
0.028606744 0.11791685 2.0107667 nan
0.0296236 0.113289 2.0112002 nan
0.029665085 0.10846767 2.011229 nan
0.031658262 0.1040222 2.0120668 nan
0.031699747 0.099197149 2.0120957 nan
0.025885673 0.093266875 2.009697 nan
0.02592692 0.088452995 2.0097258 nan
0.01523313 0.081654012 2.0053039 nan
0.026009651 0.078825235 2.0097833 nan
0.021171184 0.073127687 2.0077891 nan
0.016332718 0.067448854 2.0057945 nan
0.0095420787 0.06144258 2.0029907 nan
-0.0060328529 0.053922322 1.9965446 nan
-0.0059920833 0.049170014 1.996573 nan
0.0067370846 0.046593931 2.0018623 nan
0.0087297866 0.042148467 2.0027003 nan
-1.3499254e-05 0.035895105 1.9990864 nan
2.7508742e-05 0.031131623 1.9991148 nan
0.0069008782 0.027487664 2.0019763 nan
0.0069418862 0.022711067 2.0020049 nan
0.00015005589 0.016841082 1.9992001 nan
0.00019082546 0.012077598 1.9992287 nan
-0.0056251572 0.0063992417 1.9968286 nan
0.038342804 0.0084242802 2.0150723 nan
0.040336698 0.0038854755 2.0159109 nan
0.037449449 -0.0013951086 2.0147252 nan
0.035538763 -0.0065195882 2.0139446 nan
0.024841638 -0.012924792 2.0095203 nan
0.022930475 -0.018017532 2.0087395 nan
0.021019073 -0.023102762 2.0079584 nan
0.023012729 -0.027630361 2.0087969 nan
0.023053976 -0.032436762 2.0088255 nan
0.02504787 -0.036975566 2.0096641 nan
0.0055626347 -0.044424716 2.0015948 nan
0.018296095 -0.047506455 2.006887 nan
0.02517161 -0.05140603 2.0097501 nan
0.025212856 -0.056216154 2.009779 nan
0.025254102 -0.061026309 2.0098076 nan
0.025295349 -0.065836459 2.0098364 nan
0.025336595 -0.070646584 2.009865 nan
0.025377842 -0.075456738 2.0098939 nan
0.025419088 -0.080266923 2.0099227 nan
0.025460334 -0.085077047 2.0099514 nan
0.005971761 -0.092153013 2.0018799 nan
-0.012540727 -0.099042922 1.9942131 nan
-0.0085937073 -0.10334209 1.9958615 nan
0.016836496 -0.10528687 2.0064211 nan
0.016877504 -0.11008024 2.0064497 nan
0.0081299255 -0.11580926 2.0028327 nan
0.0062175705 -0.12079003 2.0020511 nan
0.008211703 -0.1253624 2.0028899 nan
0.008252711 -0.13013893 2.0029182 nan
0.0063403561 -0.13510852 2.0021367 nan
0.0034514379 -0.14016525 2.0009499 nan
0.0064221337 -0.14465418 2.0021937 nan
0.028926702 -0.14733629 2.0115404 nan
0.028968187 -0.15215205 2.0115693 nan
0.026079269 -0.1572293 2.0103827 nan
0.026120516 -0.16203946 2.0104113 nan
0.026161762 -0.1668496 2.0104401 nan
0.046715111 -0.16994675 2.0189781 nan
0.046756595 -0.17479607 2.019007 nan
0.04679808 -0.1796454 2.0190361 nan
0.046839803 -0.18449475 2.0190649 nan
0.046881288 -0.18934408 2.019094 nan
0.046923012 -0.19419341 2.0191231 nan
0.046964496 -0.19904274 2.0191519 nan
0.04700622 -0.20389208 2.019181 nan
0.047047704 -0.20874141 2.0192099 nan
0.024620386 -0.21508063 2.009917 nan
0.024661632 -0.21988708 2.0099456 nan
0.024702879 -0.22469348 2.0099745 nan
0.023767086 -0.22955906 2.0095978 nan
0.044324726 -0.23316002 2.0181386 nan
0.045343012 -0.2379483 2.018573 nan
0.047338814 -0.24268675 2.0194128 nan
0.050311416 -0.24738091 2.0206578 nan
0.050352901 -0.25223583 2.0206869 nan
0.050394624 -0.25709075 2.0207157 nan
0.050436109 -0.26194569 2.0207448 nan
0.050477833 -0.26680064 2.0207739 nan
0.050519556 -0.27165556 2.0208027 nan
0.025156351 -0.27756408 2.0102904 nan
0.029105993 -0.28221586 2.011941 nan
0.025238844 -0.28717691 2.0103478 nan
0.022348495 -0.29208812 2.00916 nan
0.024344059 -0.29682282 2.0099998 nan
0.052723736 -0.30072275 2.0217879 nan
0.062537521 -0.30528814 2.025872 nan
0.066488117 -0.31005561 2.0275233 nan
0.062620968 -0.31504276 2.0259304 nan
0.062662929 -0.31992009 2.0259595 nan
0.061727375 -0.32481927 2.025583 nan
0.060792059 -0.32971472 2.0252066 nan
0.058879226 -0.33462459 2.0244248 nan
0.055989116 -0.33954322 2.023237 nan
0.033552021 -0.34473872 2.0139372 nan
0.033593267 -0.34956008 2.0139661 nan
0.052204937 -0.3541787 2.0217018 nan
0.052246422 -0.35903549 2.0217307 nan
0.033717483 -0.3640241 2.0140524 nan
0.03375873 -0.36884543 2.0140812 nan
0.033799976 -0.37366679 2.0141101 nan
0.016247841 -0.37851226 2.0068367 nan
-0.0052153156 -0.38328844 1.9979401 -3.3414714e+38
0.010464997 -0.38807341 2.0044596 -3.0080698e+38
0.010506005 -0.39284998 2.0044882 -2.9285771e+38
-0.020096688 0.47314292 1.9848578 nan
-0.043448597 0.46036351 1.9752426 nan
-0.042433649 0.45600992 1.9756722 nan
-0.021924166 0.45828438 1.9841392 nan
-0.021883635 0.45355642 1.9841673 nan
-0.022817759 0.44850039 1.9837937 nan
-0.019853262 0.44475222 1.9850276 nan
-0.038333327 0.43386209 1.9774201 nan
-0.020746855 0.43496633 1.9846823 nan
-0.017781643 0.43119758 1.9859164 nan
0.0017555666 0.43283254 1.993983 nan
0.0017963361 0.4280597 1.9940116 nan
0.0028122377 0.42360169 1.994442 nan
-0.0020212221 0.41726238 1.9924607 nan
-3.0188554e-05 0.41311914 1.9932933 nan
0.00098547456 0.40865928 1.9937236 nan
-0.0038484621 0.40235156 1.9917421 nan
-0.016482024 0.393619 1.9865446 nan
-0.016441254 0.38888156 1.986573 nan
0.00017413616 0.38927364 1.9934356 nan
0.016789766 0.3896023 2.0002987 nan
0.00025615215 0.37973541 1.9934926 nan
-0.0026282358 0.37407792 1.9923151 nan
-0.027938513 0.3616634 1.9818897 nan
-0.029848246 0.35636365 1.9811137 nan
-0.005430846 0.35891581 1.9911942 nan
-0.0053900764 0.35415792 1.9912226 nan
-0.0082747033 0.34853953 1.9900446 nan
-0.021885304 0.33979809 1.9844434 nan
-0.017944483 0.33620417 1.9860802 nan
0.002574296 0.33737588 1.9945536 nan
0.0026150655 0.33260304 1.9945819 nan
0.0026560735 0.3278302 1.9946105 nan
0.0026970815 0.32305735 1.9946389 nan
-0.010914951 0.31445217 1.9890368 nan
-0.014775186 0.30861801 1.9874566 nan
-0.0088831475 0.30549878 1.989898 nan
-0.012743383 0.29967582 1.9883175 nan
-0.013677984 0.29466647 1.9879436 nan
-0.027291445 0.28622353 1.9823406 nan
-0.013596683 0.28518426 1.9880004 nan
-0.014531284 0.28018254 1.9876263 nan
-0.019367604 0.27414912 1.9856434 nan
-0.0017701674 0.27404433 1.9929128 nan
-0.0017293978 0.26928085 1.9929411 nan
-0.0036396075 0.26401091 1.9921651 nan
-0.041639715 0.2494483 1.9765029 nan
-0.041599423 0.24476135 1.9765308 nan
-0.023025898 0.24477917 1.9842036 nan
-0.038592488 0.23612463 1.9777939 nan
-0.027822165 0.23411483 1.9822481 nan
-0.021928934 0.23085386 1.9846904 nan
-0.021888403 0.22612953 1.9847188 nan
-0.005263953 0.22545612 1.9915879 nan
-0.014978557 0.21833581 1.9875922 nan
-0.01298657 0.21406752 1.9884253 nan
-0.019775061 0.20769763 1.9856365 nan
-0.021685747 0.20250791 1.9848599 nan
-0.0031088877 0.20213389 1.9925349 nan
-0.0030681181 0.19737417 1.9925632 nan
-0.0030271101 0.19261438 1.9925919 nan
-0.006889014 0.18696105 1.9910102 nan
0.017543407 0.18774623 2.0011013 nan
0.01953611 0.18338668 2.001935 nan
0.017625662 0.17814833 2.0011585 nan
0.019618602 0.17378122 2.0019922 nan
0.021611067 0.16940659 2.0028262 nan
0.025555225 0.16544884 2.0044651 nan
0.023645015 0.16021436 2.0036886 nan
0.0041705086 0.1512354 1.9956658 nan
0.012018294 0.14811516 1.998915 nan
0.022793146 0.14557922 2.0033722 nan
0.024786087 0.14117664 2.0042062 nan
0.026779028 0.13676655 2.0050402 nan
0.028771969 0.13234901 2.0058744 nan
0.028813215 0.12752956 2.0059032 nan
0.028854461 0.12271011 2.0059319 nan
0.028895946 0.1178906 2.0059607 nan
0.028937193 0.11307111 2.0059896 nan
0.028978677 0.10825163 2.0060184 nan
0.029019924 0.10343218 2.006047 nan
0.030037018 0.098798722 2.0064785 nan
0.030078502 0.093977362 2.0065074 nan
0.02426395 0.088062137 2.0041199 nan
0.016497226 0.081808358 2.0009267 nan
0.026298376 0.078799009 2.0049829 nan
0.019507261 0.072748095 2.0021923 nan
0.015644165 0.067247897 2.0006099 nan
0.011780829 0.061762568 1.9990273 nan
-0.0057477043 0.053896453 1.9918053 nan
-0.0037547636 0.04948267 1.9926395 nan
0.0021429968 0.045730975 1.9950848 nan
0.0021837663 0.040963735 1.9951134 nan
0.00027236462 0.035869177 1.9943361 nan
0.00031337261 0.031105695 1.9943645 nan
0.0052348091 0.027141808 1.9964073 nan
0.0052758171 0.022368966 1.9964359 nan
0.00043591976 0.016815154 1.9944499 nan
0.00047668934 0.01205167 1.9944785 nan
0.018090101 0.010032473 2.0017593 nan
0.039609283 0.0085485559 2.0106523 nan
0.040627092 0.0038591302 2.0110841 nan
0.037739605 -0.0014214241 2.0099044 nan
0.03778109 -0.0062558376 2.0099332 nan
0.026106687 -0.012807848 2.0051265 nan
0.025171371 -0.017761143 2.0047522 nan
0.020330759 -0.023268314 2.0027659 nan
0.025253864 -0.027381452 2.0048096 nan
0.02529511 -0.032191608 2.0048385 nan
0.025336357 -0.037001763 2.0048671 nan
0.0058489754 -0.044450704 1.9968352 nan
0.014678092 -0.048052851 2.0004911 nan
0.023507448 -0.051688615 2.0041473 nan
0.025501581 -0.05624235 2.0049822 nan
0.025542827 -0.061052505 2.0050108 nan
0.025584074 -0.065862656 2.0050397 nan
0.02562532 -0.07067278 2.0050683 nan
0.025666567 -0.075482935 2.0050972 nan
0.025707813 -0.080293119 2.0051258 nan
0.025749059 -0.085103244 2.0051546 nan
0.0062583401 -0.092179 1.9971204 nan
-0.01030293 -0.098845899 1.9902952 nan
-0.0083090356 -0.10336792 1.9911299 nan
0.017124029 -0.10531297 2.001641 nan
0.017165275 -0.11010632 2.0016696 nan
0.0084165046 -0.11583528 1.9980695 nan
0.0065039112 -0.12081599 1.9972916 nan
0.0084985206 -0.12538841 1.9981265 nan
0.0085392902 -0.13016495 1.9981551 nan
0.0085802982 -0.13494153 1.9981835 nan
0.0086213062 -0.1397181 1.9982121 nan
0.0086623142 -0.14449467 1.9982407 nan
0.030192466 -0.14727163 2.0071414 nan
0.030233713 -0.15208924 2.0071702 nan
0.0087850997 -0.15882435 1.9983263 nan
0.0068722679 -0.16377148 1.9975483 nan
0.026450248 -0.16687578 2.0056431 nan
0.047982782 -0.16989158 2.0145454 nan
0.048024267 -0.17474277 2.0145745 nan
0.047089189 -0.17967181 2.0142002 nan
0.047130674 -0.18452115 2.0142291 nan
0.047172397 -0.18937048 2.0142581 nan
0.047213882 -0.19421981 2.0142872 nan
0.026739212 -0.20054683 2.0058444 nan
0.026780458 -0.20535699 2.0058732 nan
0.024867626 -0.2103004 2.0050952 nan
0.021977754 -0.2153011 2.0039134 nan
0.022019001 -0.22010195 2.0039423 nan
0.024014087 -0.22478068 2.0047779 nan
0.024055334 -0.22958523 2.0048065 nan
0.042661041 -0.23330098 2.0125015 nan
0.042702526 -0.238141 2.0125303 nan
0.04372105 -0.24292743 2.0129628 nan
0.050602525 -0.24740732 2.0158162 nan
0.050644249 -0.25226226 2.0158453 nan
0.050685972 -0.25711721 2.0158744 nan
0.050727457 -0.26197213 2.0159035 nan
0.05076918 -0.26682705 2.0159323 nan
0.050810903 -0.27168196 2.0159614 nan
0.023490282 -0.27767128 2.0046902 nan
0.027440401 -0.28231937 2.0063331 nan
0.027481647 -0.28712952 2.006362 nan
0.02850041 -0.29190475 2.0067942 nan
0.02756414 -0.29674983 2.0064194 nan
0.053015321 -0.30074918 2.0169427 nan
0.05892095 -0.30543196 2.0193937 nan
0.066781133 -0.3100822 2.0226521 nan
0.061936229 -0.31509489 2.0206628 nan
0.042430967 -0.32044476 2.0126183 nan
0.03954038 -0.32534847 2.0114362 nan
0.039581627 -0.330181 2.0114651 nan
0.039623111 -0.33501354 2.0114939 nan
0.056280941 -0.33956972 2.0183861 nan
0.033841223 -0.34476498 2.0091293 nan
0.033882707 -0.34958631 2.0091581 nan
0.052496284 -0.35420513 2.0168583 nan
0.052538007 -0.35906193 2.0168874 nan
0.054534286 -0.36390486 2.017724 nan
0.048711151 -0.36879575 2.0153303 nan
0.048752874 -0.3736451 2.0153594 nan
0.0057817413 -0.37855294 1.9976203 nan
0.0048449947 -0.38331965 1.9972448 nan
0.0039084866 -0.38808262 1.9968696 -3.0348079e+38
0.0039492561 -0.39284611 1.9968979 -2.9019903e+38
-0.036424309 0.4720853 1.9733121 nan
-0.03735891 0.46704805 1.9729402 nan
-0.031469733 0.46436167 1.975368 nan
-0.031429201 0.45965225 1.9753962 nan
-0.021640448 0.45825863 1.9794242 nan
-0.021599917 0.45353067 1.9794526 nan
-0.022534041 0.44847471 1.9790807 nan
-0.018594174 0.44505239 1.9807091 nan
-0.034151942 0.43513292 1.9743369 nan
-0.020462899 0.43494058 1.9799654 nan
-0.017497448 0.43117177 1.981194 nan
0.0020419073 0.43280655 1.9892235 nan
0.0050078346 0.42898363 1.9904523 nan
-0.0008009958 0.42231649 1.9880803 nan
-0.0075849579 0.41535896 1.9853082 nan
-0.0094944527 0.40998268 1.9845362 nan
-0.01140347 0.40461385 1.9837644 nan
-0.01623836 0.39833051 1.9817922 nan
-0.017172484 0.39328766 1.9814203 nan
-0.019082217 0.387945 1.9806483 nan
-0.018066315 0.38351494 1.9810767 nan
-0.018025784 0.37878132 1.9811051 nan
-0.025786309 0.37166375 1.9779317 nan
-0.027696041 0.36635274 1.9771597 nan
-0.038382441 0.35840094 1.9727855 nan
-0.039317042 0.35341412 1.9724133 nan
-0.0012446928 0.36005205 1.9880502 nan
-0.0012039233 0.35528666 1.9880788 nan
-0.016766457 0.34593248 1.9817033 nan
-0.017700819 0.3409121 1.9813313 nan
-0.016685156 0.33646148 1.9817598 nan
-0.0059167431 0.3348192 1.9861913 nan
-0.0049006031 0.33034247 1.9866199 nan
1.6779906e-05 0.32697183 1.9886501 nan
5.7549481e-05 0.32220459 1.9886785 nan
-0.0077041672 0.31524748 1.9855044 nan
-0.0086390069 0.3102234 1.9851325 nan
-0.012499481 0.30439287 1.9835594 nan
-0.012458949 0.29964995 1.9835877 nan
-0.01339355 0.29464066 1.9832158 nan
-0.031885535 0.28487593 1.9756367 nan
-0.029894499 0.28069532 1.9764655 nan
-0.021074919 0.278332 1.9800975 nan
-0.019083647 0.27412337 1.9809265 nan
-0.020018486 0.26913661 1.9805543 nan
-0.020953326 0.26415342 1.9801822 nan
-0.0043293522 0.26373178 1.9870181 nan
-0.040383011 0.24967414 1.9722292 nan
-0.040342718 0.24498528 1.9722574 nan
-0.022742419 0.24475348 1.9794941 nan
-0.038310915 0.23609912 1.9731145 nan
-0.028515009 0.23384529 1.9771476 nan
-0.024572281 0.230102 1.9787779 nan
-0.021604924 0.22610378 1.9800076 nan
0.0038021517 0.22757477 1.9904499 nan
-0.013718515 0.21854645 1.9832685 nan
-0.0039211796 0.21615273 1.9873023 nan
-0.0058318661 0.21092945 1.9865298 nan
-0.016523508 0.20363629 1.9821517 nan
-0.01453176 0.19936055 1.9829812 nan
-0.021321205 0.19303352 1.9802053 nan
-0.021280674 0.18830925 1.9802334 nan
-0.019288449 0.18403167 1.9810629 nan
0.017831417 0.18772012 1.9963155 nan
0.019824358 0.18336052 1.9971457 nan
0.019865604 0.17855775 1.9971743 nan
0.019906612 0.17375505 1.9972029 nan
0.018972011 0.16873837 1.9968309 nan
0.021940799 0.16457403 1.9980617 nan
0.021982046 0.15976757 1.9980905 nan
0.0025056314 0.1507926 1.9901049 nan
0.002546401 0.14602357 1.9901333 nan
0.002587409 0.14125443 1.9901619 nan
0.023122879 0.14074475 1.9986062 nan
0.023164125 0.1359365 1.9986348 nan
0.02906117 0.13232279 2.0010681 nan
0.029102417 0.12750334 2.001097 nan
0.029143663 0.12268388 2.0011258 nan
0.029185148 0.11786437 2.0011547 nan
0.029226394 0.11304489 2.0011835 nan
0.029267879 0.10822541 2.0012121 nan
0.030284973 0.1035938 2.001642 nan
0.030326458 0.098772466 2.0016706 nan
0.029391857 0.093766958 2.0012987 nan
0.029433103 0.088947505 2.0013275 nan
0.013856501 0.081240952 1.9949419 nan
0.025611253 0.078594208 1.9997814 nan
0.0256525 0.073782206 1.9998102 nan
0.021788927 0.068270832 1.9982352 nan
0.017925354 0.06277433 1.9966602 nan
0.0023473215 0.055239495 1.9902737 nan
0.00043568134 0.050133761 1.9895003 nan
0.00047668934 0.045370277 1.9895289 nan
0.00051745895 0.040606733 1.9895573 nan
0.0025108766 0.036170509 1.9903877 nan
0.0054803803 0.0318886 1.9916193 nan
0.0094264457 0.027755497 1.9932518 nan
0.0075150444 0.022659061 1.9924784 nan
0.0026744318 0.017101584 1.9905016 nan
0.0027152013 0.012334345 1.9905303 nan
0.020330759 0.010311274 1.9977777 nan
0.028183075 0.0067151464 2.0010149 nan
0.029200645 0.0020481325 2.0014448 nan
0.048770517 0.00016763575 2.0094953 nan
0.048812002 -0.0046872818 2.0095243 nan
0.028348299 -0.012547852 2.0011301 nan
0.028389545 -0.01736361 2.0011587 nan
0.028430792 -0.022179337 2.0011876 nan
0.025542589 -0.027407648 2.0000129 nan
0.025583835 -0.032217804 2.0000415 nan
0.0060943081 -0.03970385 1.9920471 nan
0.0061353161 -0.044476692 1.9920757 nan
0.011059375 -0.048599187 1.9941101 nan
0.022819133 -0.051842961 1.9989531 nan
0.02286038 -0.056647513 1.9989817 nan
0.022901388 -0.061452065 1.9990106 nan
0.022942634 -0.066256613 1.9990392 nan
0.022983881 -0.071061194 1.9990678 nan
0.025955053 -0.075509131 2.0003004 nan
0.025996299 -0.080319285 2.000329 nan
0.026037546 -0.08512944 2.0003579 nan
0.0065446808 -0.092204988 1.9923608 nan
0.0065856888 -0.09697783 1.9923894 nan
0.010533423 -0.10131252 1.9940231 nan
0.012528033 -0.10587746 1.9948542 nan
0.010615439 -0.1108731 1.9940803 nan
0.010656447 -0.1156534 1.9941089 nan
0.0097206542 -0.12053576 1.993736 nan
0.0097616622 -0.12531421 1.9937646 nan
0.0098026702 -0.13009262 1.9937932 nan
0.010820479 -0.13477458 1.9942231 nan
0.010861487 -0.13955487 1.9942517 nan
0.010902495 -0.14433517 1.9942803 nan
0.010943503 -0.14911547 1.9943087 nan
0.010984511 -0.15389577 1.9943373 nan
0.0090719173 -0.15885036 1.9935629 nan
0.0071586086 -0.16379747 1.9927888 nan
0.0071996166 -0.16857031 1.9928172 nan
0.050227731 -0.16975491 2.0105107 nan
0.050269455 -0.17460983 2.0105398 nan
0.04738006 -0.1796982 2.0093644 nan
0.047421783 -0.18454754 2.0093932 nan
0.047463268 -0.18939687 2.0094223 nan
0.047504991 -0.1942462 2.0094512 nan
0.027027698 -0.20057303 2.0010476 nan
0.025114866 -0.20552017 2.0002735 nan
0.025156112 -0.21032658 2.0003021 nan
0.023243042 -0.2152625 1.9995277 nan
0.023284288 -0.22006518 1.9995563 nan
0.024302574 -0.22480685 1.9999866 nan
0.041932911 -0.2285465 2.0072443 nan
0.042951435 -0.23332733 2.0076749 nan
0.04299292 -0.23816735 2.0077038 nan
0.044011682 -0.24295378 2.0081344 nan
0.050893873 -0.24743378 2.0109749 nan
0.050935596 -0.2522887 2.011004 nan
0.050977319 -0.25714362 2.0110328 nan
0.051018804 -0.26199853 2.0110619 nan
0.051060528 -0.26685348 2.011091 nan
0.051102251 -0.27170843 2.0111198 nan
0.047234386 -0.27672535 2.0095422 nan
0.027729126 -0.28234556 2.0015364 nan
0.027770372 -0.28715572 2.001565 nan
0.049313873 -0.29119796 2.0104325 nan
0.050332874 -0.2960161 2.0108633 nan
0.033758491 -0.30139911 2.0040619 nan
0.039664596 -0.30604461 2.0065017 nan
0.045570701 -0.31071252 2.0089412 nan
0.042679876 -0.31563297 2.0077648 nan
0.046631187 -0.32037628 2.0094011 nan
0.043740124 -0.3252874 2.0082245 nan
0.03791675 -0.33024728 2.0058422 nan
0.036003202 -0.3351123 2.0050673 nan
0.036044449 -0.33993739 2.0050962 nan
0.034130663 -0.34479123 2.0043213 nan
0.034171909 -0.34961256 2.0043502 nan
0.034213394 -0.35443392 2.004379 nan
0.03425464 -0.35925525 2.0044079 nan
0.039184421 -0.36404201 2.0064461 nan
0.052912563 -0.36880195 2.0121021 nan
0.050998777 -0.37366512 2.0113273 nan
0.0090006301 -0.37857497 1.9940722 nan
0.0090416381 -0.38334778 1.9941006 -3.3681053e+38
0.0090826461 -0.38812062 1.9941292 -3.0881332e+38
-0.03614226 0.47205973 1.9686251 nan
-0.036101967 0.46735966 1.9686532 nan
-0.025337366 0.46634775 1.9730604 nan
-0.023347287 0.46229416 1.9738848 nan
-0.02135673 0.45823288 1.9747093 nan
-0.021316199 0.45350492 1.9747376 nan
-0.021275667 0.44877684 1.9747658 nan
-0.017335085 0.44535255 1.9763865 nan
-0.030944733 0.43607962 1.9708407 nan
-0.028954176 0.43201476 1.9716651 nan
-0.0035628367 0.43563122 1.9820461 nan
-0.0035218287 0.43086958 1.9820747 nan
-0.0054313228 0.4254747 1.9813066 nan
-0.010265975 0.41914296 1.9793439 nan
-0.010225206 0.41439438 1.9793723 nan
-0.010184436 0.4096458 1.9794006 nan
-0.014044194 0.40366042 1.9778361 nan
-0.015953926 0.39830476 1.9770679 nan
-0.016888527 0.39326191 1.9766979 nan
-0.020748524 0.38731211 1.9751332 nan
-0.020707993 0.3825841 1.9751613 nan
