# .PCD v0.7 - Point Cloud Data file format
VERSION 0.7
FIELDS x y z rgb
SIZE 4 4 4 4
TYPE F F F F
COUNT 1 1 1 1
WIDTH 1118
HEIGHT 1
VIEWPOINT 0 0 0 1 0 0 0
POINTS 1118
DATA ascii
2.4668288 0.38223723 0.64508611 nan
2.4668012 0.37754083 0.64511412 nan
2.4677835 0.37298676 0.64501476 -3.3935869e+38
2.4505816 0.36589912 0.64720887 -2.9532752e+38
2.4505539 0.36123255 0.64723676 -2.8868702e+38
2.4687104 0.35902879 0.64497161 -2.9003185e+38
2.4686828 0.3543286 0.64499974 -2.8473047e+38
2.4686549 0.34962845 0.64502782 -2.8473047e+38
2.5048981 -0.17974859 0.64325488 -3.0079085e+38
2.4927623 -0.18358847 0.64479673 -3.0078576e+38
2.4957612 -0.18857786 0.64444679 -2.994513e+38
2.495733 -0.193334 0.64447522 -3.0211485e+38
2.4886425 -0.19750667 0.64538616 -2.9677187e+38
2.4926503 -0.20259061 0.64491028 -2.940508e+38
2.4754705 -0.20586072 0.64708155 -2.8203041e+38
2.4582913 -0.20906739 0.64925241 -3.3262442e+38
2.4643171 -0.2142994 0.64852428 nan
2.4824493 -0.22066595 0.64628404 nan
2.4814124 -0.22530326 0.6464383 nan
2.4672604 -0.22868349 0.64823055 nan
2.4702592 -0.23368222 0.64788067 nan
2.4682138 -0.2381914 0.64816082 nan
2.4681861 -0.24289715 0.64818889 nan
2.4681582 -0.24760291 0.64821702 nan
2.4671216 -0.2522029 0.6483711 nan
2.4701202 -0.2572296 0.6480214 nan
2.4821978 -0.26325276 0.6465385 nan
2.4791439 -0.26765063 0.64694452 nan
2.469028 -0.27124488 0.64823169 nan
2.4659743 -0.27560729 0.64863747 nan
2.4689724 -0.28066012 0.64828795 nan
2.474997 -0.28608057 0.64756095 nan
2.4759781 -0.29092005 0.64746332 nan
2.4961243 -0.29809144 0.64497471 nan
2.4960961 -0.30284947 0.64500314 nan
2.4910245 -0.30697611 0.64566064 nan
2.4909966 -0.31172478 0.64568901 nan
2.4839082 -0.31556347 0.64659798 nan
2.4818625 -0.32003528 0.64687788 nan
2.4778001 -0.32423225 0.6474092 nan
2.4757552 -0.32868549 0.64768898 nan
2.4747186 -0.33326873 0.64784288 nan
2.4676306 -0.3370122 0.64875132 nan
2.4867661 -0.34440067 0.64639056 nan
2.4655578 -0.34613758 0.64905894 nan
2.4635129 -0.35054979 0.64933848 nan
2.4634852 -0.35524806 0.64936662 nan
2.4614401 -0.35964903 0.64964604 -3.366794e+38
2.4573784 -0.36374149 0.65017676 -3.3668982e+38
2.4553337 -0.3681238 0.65045607 -3.3003342e+38
2.4371526 -0.37003058 0.65274578 -3.2337692e+38
2.4371252 -0.37468037 0.65277356 -3.1274855e+38
2.4481912 -0.38106796 0.6514194 -3.1141936e+38
2.4501805 -0.38605803 0.65119612 -3.0877145e+38
2.4511616 -0.39089373 0.65109843 -3.0610259e+38
2.4033358 0.52389598 0.64777577 -2.5806243e+38
2.4235237 0.52343589 0.64520985 -2.9663606e+38
2.4416902 0.52249318 0.64290375 -3.3266588e+38
2.4659202 0.52269608 0.63982016 -3.3000182e+38
2.4547746 0.51580065 0.64127409 -3.2866223e+38
2.4476721 0.50973982 0.64220935 -3.2866251e+38
2.4466338 0.50488424 0.64236677 -3.2599355e+38
2.463788 0.50353605 0.6401915 -3.2864649e+38
2.4465787 0.49556965 0.64242244 -3.3532391e+38
2.4516048 0.49186704 0.64180243 -3.3533443e+38
2.4515772 0.48720044 0.64183033 -3.3666887e+38
2.4515498 0.4825339 0.64185816 -3.3799295e+38
2.4515221 0.47786731 0.64188606 -3.3933264e+38
2.4636219 0.47540224 0.64035958 -3.3666922e+38
2.4635942 0.47071329 0.64038759 -3.3800366e+38
2.4534605 0.46422705 0.64171076 -3.366692e+38
2.451412 0.45920104 0.64199758 -3.3800883e+38
2.4513845 0.45453447 0.64202547 nan
2.4564097 0.45073852 0.641406 nan
2.4584031 0.44640714 0.64117503 nan
2.4583755 0.44172752 0.64120299 nan
2.453295 0.4362053 0.64187813 nan
2.4532676 0.43153498 0.64190608 nan
2.4532399 0.42686465 0.64193398 -3.3934293e+38
2.4592755 0.42317191 0.64118546 nan
2.4703634 0.42026219 0.63979006 nan
2.4703357 0.41556016 0.63981819 nan
2.4662657 0.41022882 0.64036375 nan
2.4682591 0.40584514 0.64013314 -3.393225e+38
2.4510539 0.39853564 0.64236009 -3.366692e+38
2.4510264 0.39386907 0.64238799 -3.3666399e+38
2.4509988 0.38920248 0.64241588 -3.3932765e+38
2.4509714 0.38453594 0.64244378 nan
2.4509437 0.37986934 0.64247167 nan
2.4509163 0.3752028 0.64249957 nan
2.4508886 0.37053621 0.64252746 -3.380399e+38
2.4316638 0.36319935 0.64501148 -2.9266903e+38
2.4336574 0.35884559 0.6447807 -2.8334897e+38
2.4700027 0.35913593 0.64015532 -2.9002641e+38
2.469975 0.35443386 0.64018345 -2.8073236e+38
2.4719677 0.34999803 0.63995308 -2.8206678e+38
2.5243001 -0.19083759 0.63612121 -3.0079087e+38
2.4990454 -0.19360851 0.63934857 -2.9945639e+38
2.4909449 -0.19770335 0.64040053 -2.9812195e+38
2.473763 -0.20100123 0.64260364 -2.8873397e+38
2.4787803 -0.20615178 0.64199221 -2.7404466e+38
2.4626081 -0.20945282 0.64406687 -3.3263971e+38
2.4676256 -0.21460152 0.64345545 nan
2.4877777 -0.22115929 0.640926 nan
2.4857316 -0.22571136 0.64121008 nan
2.4675422 -0.22871318 0.64353979 nan
2.4745774 -0.2341051 0.64267296 nan
2.4745495 -0.23882207 0.64270115 nan
2.4725037 -0.24333495 0.64298499 nan
2.4724758 -0.24804816 0.64301312 nan
2.4704301 -0.25254986 0.6432969 nan
2.4754469 -0.25779748 0.64268613 nan
2.4905527 -0.26415855 0.64079762 nan
2.4895155 -0.268794 0.64095378 nan
2.4995763 -0.27467114 0.63970459 nan
2.4965217 -0.27908951 0.64011627 nan
2.4712725 -0.28092372 0.64333802 nan
2.480324 -0.28670442 0.64221668 nan
2.499464 -0.29372555 0.63981843 nan
2.4974179 -0.29824403 0.64010233 nan
2.49739 -0.30300391 0.64013076 nan
2.4852564 -0.30624837 0.64169133 nan
2.4862373 -0.31111401 0.64159197 nan
2.4821742 -0.31533328 0.64213091 nan
2.478111 -0.3195377 0.6426698 nan
2.4740484 -0.32372713 0.6432085 nan
2.4699855 -0.32790163 0.64374721 nan
2.4729838 -0.33302352 0.64339256 nan
2.4669037 -0.33690259 0.64418632 nan
2.4618323 -0.34090042 0.64485234 nan
2.4557526 -0.34473655 0.64564592 nan
2.4577422 -0.34970984 0.6454187 nan
2.4627581 -0.35513094 0.64480895 nan
2.4607129 -0.35953 0.64509213 -3.366692e+38
2.4576592 -0.36377111 0.64550275 -3.353451e+38
2.4586401 -0.36861059 0.64540327 -3.3003318e+38
2.4394486 -0.37036845 0.64785397 -3.2471116e+38
2.4414382 -0.37533426 0.64762676 -3.1141922e+38
2.4545228 -0.38204548 0.64599723 -3.1009001e+38
2.4555039 -0.38688684 0.64589775 -3.0477843e+38
2.4514418 -0.39092329 0.64643562 -3.0343882e+38
2.40361 0.52386707 0.6432116 -2.60721e+38
2.4238002 0.52340674 0.64060843 -3.0194774e+38
2.4237731 0.51879245 0.64063603 -3.3797762e+38
2.4449737 0.51842231 0.63790208 -3.3131584e+38
2.4570763 0.51617163 0.636352 -3.2864696e+38
2.4550271 0.51109898 0.63664293 -3.2997618e+38
2.4469128 0.5048548 0.63772261 -3.2864172e+38
2.4468853 0.50019747 0.63775039 -3.3131046e+38
2.4468579 0.49554026 0.63777822 -3.3664825e+38
2.4518845 0.49183759 0.63714886 -3.3400543e+38
2.4518569 0.48717099 0.63717675 -3.3400022e+38
2.4538505 0.48287877 0.63694179 -3.3667932e+38
2.4538229 0.47820851 0.63696969 -3.3801384e+38
2.4639027 0.47537264 0.63568377 -3.3799857e+38
2.4638751 0.47068369 0.63571179 -3.3799855e+38
2.451719 0.46383816 0.63731623 -3.3800885e+38
2.4537127 0.45952728 0.63708138 -3.3800885e+38
2.453685 0.45485696 0.63710928 nan
2.4617431 0.4515796 0.63608652 nan
2.4687903 0.44810012 0.63519526 nan
2.4707839 0.44374263 0.63496071 nan
2.4636815 0.437861 0.63590795 nan
2.4656751 0.43350533 0.6356734 nan
2.4676688 0.42914218 0.63543886 nan
2.4726942 0.42526034 0.63481057 -3.3933264e+38
2.4716556 0.42039356 0.63496995 nan
2.471628 0.41568968 0.63499808 nan
2.466547 0.4101992 0.63568234 nan
2.4685407 0.40581551 0.63544798 nan
2.4493122 0.39819899 0.63796902 -3.366692e+38
2.4492848 0.39353615 0.63799691 -3.3533478e+38
2.4512784 0.38917303 0.63776243 nan
2.4492297 0.38421047 0.63805264 nan
2.4492021 0.37954766 0.63808048 nan
2.4491746 0.37488478 0.63810831 nan
2.4511683 0.37050676 0.63787395 -3.3804512e+38
2.4339623 0.36345118 0.64013112 -2.9401385e+38
2.4349456 0.358955 0.64002764 -2.8470441e+38
2.4541171 0.35691747 0.63756424 -2.8604925e+38
2.4722774 0.35467407 0.63523239 -2.8340122e+38
2.4742706 0.35023442 0.63499832 -2.8206678e+38
2.4993305 -0.19363856 0.63460016 -3.0079087e+38
2.4932475 -0.19790006 0.63540739 -3.0078045e+38
2.4780822 -0.20137195 0.63738257 -2.9271636e+38
2.4820907 -0.20644294 0.63689166 -2.8469923e+38
2.4649079 -0.20966041 0.63912594 -3.3663756e+38
2.4719439 -0.21499455 0.6382457 nan
2.4910891 -0.22146733 0.63580883 nan
2.4708791 -0.22432269 0.63843179 nan
2.4688332 -0.22883931 0.63871932 nan
2.47486 -0.23413488 0.6379692 -3.3800889e+38
2.4929953 -0.24065486 0.63566291 nan
2.4949851 -0.24560946 0.63543189 nan
2.4757853 -0.24838963 0.63792408 nan
2.4707124 -0.2525796 0.63860065 nan
2.4777477 -0.25804251 0.63772118 nan
2.4908371 -0.26418853 0.63606417 nan
2.4898 -0.26882395 0.63622212 nan
2.4837182 -0.27288952 0.63702816 nan
2.4806633 -0.27727801 0.63744521 nan
2.4745815 -0.28130436 0.63825107 nan
2.4826252 -0.2869719 0.63724256 nan
2.5017672 -0.29399696 0.63480902 nan
2.4987123 -0.29839662 0.63522619 nan
2.4966664 -0.30290952 0.63551372 nan
2.4875581 -0.30653089 0.63670802 nan
2.488539 -0.31140026 0.63660681 nan
2.4784219 -0.31484309 0.63793033 nan
2.478394 -0.31956753 0.63795853 nan
2.4743309 -0.3237569 0.63850474 nan
2.4662323 -0.32738885 0.63956881 nan
2.4692309 -0.33250335 0.6392085 nan
2.466177 -0.33679292 0.63962501 nan
2.4600961 -0.34064764 0.64042979 nan
2.450989 -0.34405074 0.64162278 -3.3933264e+38
2.4580231 -0.3497394 0.64074469 -3.3933252e+38
2.4610217 -0.35486695 0.6403845 nan
2.4579678 -0.3591136 0.64080071 -3.3268679e+38
2.4599578 -0.36410177 0.64056993 -3.3135233e+38
2.458921 -0.36864018 0.6407274 -3.2868864e+38
2.4397275 -0.37039784 0.64321351 -3.2336651e+38
2.4518046 -0.37692508 0.64168894 -3.1142429e+38
2.4568207 -0.38239104 0.64107013 -3.1009512e+38
2.4567931 -0.38707626 0.64109814 -3.0477843e+38
2.4038842 0.52383822 0.63864738 -2.5673866e+38
2.4240768 0.52337766 0.63600707 -2.9796056e+38
2.4240494 0.51876336 0.63603461 -3.3132152e+38
2.4432304 0.51798874 0.63352829 -3.3132119e+38
2.4593782 0.51654261 0.63142246 -3.2731785e+38
2.4573288 0.51146621 0.63171709 -3.2863148e+38
2.447192 0.50482541 0.63307834 -3.299659e+38
2.4471643 0.50016809 0.63310617 -3.2998142e+38
2.4471369 0.49551088 0.63313401 -3.3266066e+38
2.4471095 0.49085367 0.63316178 -3.3401563e+38
2.4480929 0.48638541 0.6330564 -3.3401044e+38
2.4480653 0.48172632 0.63308424 -3.3401565e+38
2.4480379 0.4770672 0.63311207 -3.3668459e+38
2.4550865 0.47369215 0.63220716 -3.3800899e+38
2.4570804 0.46938309 0.63196856 -3.3667453e+38
2.4519987 0.46380869 0.63266265 -3.3667441e+38
2.4519713 0.45914212 0.63269055 -3.3800883e+38
2.4539649 0.45482752 0.63245201 nan
2.4690995 0.45276877 0.63048208 nan
2.4710934 0.44841495 0.63024372 nan
2.4730871 0.44405365 0.63000548 nan
2.4659841 0.43816838 0.63096571 nan
2.4669669 0.43364233 0.63086063 nan
2.4709826 0.42960685 0.63035613 nan
2.472976 0.42523062 0.63011801 -3.3933268e+38
2.4719374 0.42036387 0.63027924 -3.3933782e+38
2.4719098 0.41565999 0.63030732 nan
2.4668283 0.41016954 0.63100088 nan
2.4688222 0.40578583 0.63076282 nan
2.4495916 0.39816955 0.6333192 -3.3800885e+38
2.4495642 0.39350671 0.63334709 -3.3666918e+38
2.450547 0.38899371 0.63324189 -3.3932743e+38
2.4474878 0.38388512 0.6336689 nan
2.4484708 0.37937212 0.6335637 nan
2.4484434 0.37471113 0.63359153 nan
2.4504368 0.37033495 0.63335335 -3.3137281e+38
2.4322188 0.36314088 0.63577515 -2.9401389e+38
2.4372444 0.35920304 0.63513798 -2.8203577e+38
2.456418 0.35716149 0.63263917 -2.8470463e+38
2.4563904 0.35248563 0.63266712 -2.8073234e+38
2.4563627 0.3478097 0.63269508 -2.8073234e+38
2.5228293 -0.19554363 0.62682343 -3.0213042e+38
2.4965599 -0.1981802 0.63027513 -3.0212523e+38
2.4803839 -0.20157228 0.63240993 -2.9407707e+38
2.4652171 -0.20499179 0.63441265 -2.8072214e+38
2.4712448 -0.21022396 0.63365102 -3.3399466e+38
2.4752538 -0.21529688 0.63315266 nan
2.4752262 -0.22001381 0.63318086 nan
2.4762073 -0.22482534 0.6330775 nan
2.4751704 -0.22944771 0.63323724 nan
2.4933078 -0.23593432 0.63089728 nan
2.4932797 -0.24068487 0.63092566 nan
2.49527 -0.24563947 0.63069093 nan
2.4952419 -0.25039375 0.6307193 nan
2.4730127 -0.25282091 0.63364124 nan
2.4760122 -0.25785705 0.63327491 nan
2.4891031 -0.26399949 0.63159359 nan
2.4890749 -0.26874256 0.6316219 nan
2.4870288 -0.27325913 0.63191324 nan
2.4839737 -0.27765319 0.6323359 nan
2.473855 -0.28121719 0.63367879 nan
2.4758451 -0.28616992 0.63344407 nan
2.4939804 -0.29306144 0.63110644 nan
2.4919343 -0.29756868 0.63139772 nan
2.4878702 -0.30181962 0.63195175 nan
2.4858241 -0.30630818 0.63224286 nan
2.485796 -0.31104565 0.63227117 nan
2.472651 -0.3140927 0.63400739 nan
2.4766595 -0.31933352 0.63351011 nan
2.4725955 -0.32351914 0.63406372 nan
2.4685318 -0.32768986 0.63461733 nan
2.4674952 -0.33225808 0.63477671 nan
2.4634318 -0.3364045 0.63533014 nan
2.4573503 -0.34025356 0.63614601 nan
2.4482424 -0.34365094 0.63735569 nan
2.4562862 -0.34947905 0.63633335 -3.3799822e+38
2.459285 -0.35460287 0.63596749 -3.393327e+38
2.4572396 -0.35899448 0.63625801 -3.3666413e+38
2.458221 -0.36383024 0.63615477 -3.3400044e+38
2.4581933 -0.36851737 0.63618279 -3.2868868e+38
2.4379883 -0.37011862 0.63883543 -3.2336134e+38
2.4520848 -0.37695464 0.63702607 -3.1140867e+38
2.4571013 -0.38242063 0.63639802 -3.100847e+38
2.4570737 -0.38710585 0.63642597 -3.0344391e+38
2.4031472 0.52360165 0.63421845 -2.5807823e+38
2.4061537 0.5196439 0.63383996 -2.9529162e+38
2.4243259 0.51873422 0.63143319 -3.2865779e+38
2.4435091 0.51795936 0.62889153 -3.2865754e+38
2.4616809 0.51691347 0.62648553 -3.2464378e+38
2.459631 0.51183343 0.62678385 -3.2730215e+38
2.4474709 0.50479603 0.62843412 -3.2863659e+38
2.4474435 0.5001387 0.62846196 -3.3131586e+38
2.4474158 0.49548146 0.62848973 -3.3665883e+38
2.4453666 0.4904424 0.62878788 -3.3532961e+38
2.447361 0.48616695 0.6285454 -3.3532959e+38
2.4473336 0.48150975 0.6285733 -3.3400545e+38
2.4473059 0.47685248 0.62860107 -3.3667437e+38
2.4503114 0.47274551 0.6282236 -3.3799859e+38
2.4523058 0.46844581 0.62798131 -3.3666411e+38
2.4522784 0.46377924 0.62800914 -3.366692e+38
2.4522507 0.45911267 0.62803704 nan
2.455256 0.45497397 0.62765974 -3.3801408e+38
2.4714029 0.45308727 0.62552679 -3.3801408e+38
2.4764295 0.44924641 0.6248796 -3.380141e+38
2.4764018 0.44453502 0.62490779 -3.3667441e+38
2.4662652 0.43813875 0.62628621 -3.3801905e+38
2.471292 0.4342792 0.6256392 -3.3801384e+38
2.4732857 0.42990673 0.62539732 nan
2.4773011 0.42585257 0.62488538 -3.3932733e+38
2.4732301 0.42049521 0.62545353 nan
2.4711809 0.41547111 0.62575155 nan
2.4681208 0.41029721 0.62618452 nan
2.4701142 0.40591162 0.62594265 nan
2.4518929 0.39844728 0.62839955 -3.3933786e+38
2.4518652 0.39378071 0.62842745 -3.3800342e+38
2.4508266 0.38896427 0.62859023 -3.3666356e+38
2.450799 0.38429961 0.62861812 nan
2.4517825 0.37978098 0.62851107 nan
2.451755 0.37511444 0.62853897 nan
2.452738 0.37059021 0.62843204 -3.2870387e+38
2.4365392 0.36367369 0.63061762 -2.9267945e+38
2.4375224 0.35917374 0.63051045 -2.8070646e+38
2.4566982 0.35713199 0.62797642 -2.8071165e+38
2.4566705 0.35245612 0.62800431 -2.8073234e+38
2.5221078 -0.19549242 0.62216574 -3.0743695e+38
2.4988637 -0.19837703 0.6252653 -3.0743174e+38
2.4826856 -0.20177266 0.62742984 -2.9939899e+38
2.4685266 -0.20528282 0.62932706 -2.8604929e+38
2.4715269 -0.21025369 0.62895465 -3.339947e+38
2.4735177 -0.21514492 0.62871587 nan
2.4755087 -0.22004358 0.62847716 nan
2.4936485 -0.22646323 0.62610322 nan
2.4936204 -0.23121376 0.62613159 nan
2.4935925 -0.2359643 0.62616003 nan
2.4935644 -0.24071485 0.6261884 nan
2.4955549 -0.24566948 0.62594992 nan
2.4955268 -0.25042376 0.62597835 nan
2.491462 -0.25475487 0.6265403 nan
2.4934523 -0.25971696 0.62630188 nan
2.4782858 -0.26282468 0.62833071 nan
2.4782579 -0.26754722 0.62835896 nan
2.4953864 -0.2741951 0.62612039 nan
2.4751747 -0.276647 0.62881541 nan
2.4640458 -0.28007707 0.63031006 nan
2.4619997 -0.2845358 0.63060474 nan
2.4649994 -0.28959063 0.63023287 nan
2.4609351 -0.2937986 0.63079411 nan
2.4568708 -0.2979916 0.63135523 nan
2.477026 -0.30520126 0.62871796 nan
2.4749796 -0.30966562 0.6290127 nan
2.4658697 -0.31321216 0.63023996 nan
2.4729056 -0.31883568 0.62933552 nan
2.4728777 -0.32354888 0.62936366 nan
2.4637687 -0.3270413 0.63059068 nan
2.4627316 -0.33160019 0.63075197 nan
2.4627037 -0.33629477 0.63077998 nan
2.4576309 -0.34028313 0.6314739 nan
2.4505403 -0.34396663 0.63243407 nan
2.4565668 -0.34950861 0.63166308 -3.366692e+38
2.4595659 -0.35463247 0.63129163 -3.366692e+38
2.4575202 -0.35902405 0.6315859 -3.3532963e+38
2.4585018 -0.36385986 0.63148081 -3.3400042e+38
2.4564562 -0.36824206 0.63177502 -3.3001279e+38
2.4534016 -0.37246251 0.63220227 -3.2469584e+38
2.4523652 -0.37698415 0.63236332 -3.1274313e+38
2.4583912 -0.38260821 0.63159281 -3.1141397e+38
2.4654257 -0.38841462 0.63068938 -3.0477324e+38
2.4054439 0.52398795 0.62938184 -2.6075238e+38
2.4094617 0.52023238 0.62886077 -2.9665742e+38
2.4276359 0.51931691 0.6264205 -3.2468057e+38
2.4468212 0.51853627 0.62384349 -3.2864168e+38
2.4639838 0.51728427 0.62154102 -3.246384e+38
2.4639561 0.5125972 0.62156904 -3.2728664e+38
2.4507835 0.50535595 0.62337875 -3.2729183e+38
2.4487338 0.50030386 0.62368071 -3.3130545e+38
2.447695 0.49545208 0.62384558 nan
2.4486787 0.49098569 0.62373638 -3.3667443e+38
2.4476399 0.48613757 0.62390125 -3.3400032e+38
2.4476125 0.48148036 0.62392902 -3.3400547e+38
2.4485962 0.47700837 0.62381989 -3.3533993e+38
2.4526131 0.47308296 0.62329984 -3.3533478e+38
2.4525855 0.46841636 0.62332773 -3.3532956e+38
2.452558 0.4637498 0.62335563 -3.3664839e+38
2.4545522 0.45943883 0.62310964 nan
2.4676681 0.45705587 0.6213575 -3.3933788e+38
2.4716847 0.45305759 0.62083787 -3.3934313e+38
2.4767118 0.44921666 0.62018144 -3.380037e+38
2.4766841 0.44450527 0.62020963 -3.3800366e+38
2.4766562 0.43979394 0.62023777 -3.3801901e+38
2.4766283 0.43508261 0.62026596 -3.3801901e+38
2.4745786 0.43004176 0.6205678 -3.3667936e+38
2.4765728 0.42565989 0.62032223 -3.3667936e+38
2.4745231 0.42062652 0.62062407 nan
2.4714627 0.41544142 0.62106264 nan
2.4704237 0.41058213 0.62122756 nan
2.4714072 0.40603739 0.6211189 nan
2.4501505 0.39811069 0.62401968 -3.3933784e+38
2.4501228 0.39344785 0.62404752 -3.3666372e+38
2.4521172 0.38908467 0.62380183 -3.3666336e+38
2.4520898 0.38441813 0.62382966 nan
2.4530728 0.37989759 0.62372082 nan
2.4530454 0.37522918 0.62374872 nan
2.4530177 0.37056074 0.62377661 -3.2869342e+38
2.4378281 0.36378488 0.62585533 -2.9000544e+38
2.4378006 0.35914445 0.62588298 -2.8070135e+38
2.4569783 0.35710248 0.62331361 -2.8337021e+38
2.4559398 0.3522917 0.62347817 -2.8073234e+38
2.4829969 -0.19707251 0.62268484 -3.0743182e+38
2.4839785 -0.2018878 0.62257767 -2.993939e+38
2.4667892 -0.20513824 0.62490696 -2.8337532e+38
2.4687808 -0.2100164 0.62466443 -3.3264981e+38
2.4687529 -0.21472029 0.6246925 nan
2.4868951 -0.22109351 0.62228477 nan
2.4868672 -0.22583097 0.62231314 nan
2.4848204 -0.2303755 0.622612 nan
2.4847925 -0.23510924 0.62264037 nan
2.4847646 -0.23984298 0.62266862 nan
2.5089617 -0.24702641 0.61945057 nan
2.4897554 -0.24983016 0.62204885 nan
2.4897275 -0.25457323 0.62207723 nan
2.4917183 -0.25953162 0.62183511 nan
2.4916902 -0.26427841 0.62186348 nan
2.4916623 -0.26902524 0.62189186 -3.380141e+38
2.4936528 -0.27399853 0.62164986 -3.3801406e+38
2.4754572 -0.27667677 0.62411165 nan
2.4562526 -0.27917078 0.62670815 nan
2.4552157 -0.2837334 0.62687135 nan
2.4602344 -0.28901666 0.62622344 nan
2.4602067 -0.29370561 0.62625152 nan
2.4571514 -0.29802117 0.62668496 nan
2.4732716 -0.30472574 0.624551 nan
2.470216 -0.3090544 0.6249845 nan
2.4671607 -0.31337187 0.62541789 nan
2.4792433 -0.319657 0.62382495 nan
2.4792154 -0.32438138 0.62385321 nan
2.4690959 -0.32774925 0.6252321 nan
2.4720955 -0.33286756 0.62485504 nan
2.4750953 -0.33799708 0.6244781 nan
2.4720399 -0.34229028 0.62491131 -3.3665847e+38
2.4619207 -0.34557042 0.62628973 -3.3799297e+38
2.4618931 -0.35026309 0.62631774 -3.3798802e+38
2.4628742 -0.35510263 0.62621081 -3.3666392e+38
2.4588103 -0.35920236 0.62677872 -3.3401563e+38
2.4587827 -0.36388943 0.62680674 -3.3268131e+38
2.4567368 -0.36827162 0.62710476 -3.2867835e+38
2.4556999 -0.37280068 0.62726772 -3.2335625e+38
2.4556725 -0.37748221 0.62729567 -3.1405697e+38
2.4566538 -0.38232169 0.62718868 -3.1140372e+38
2.4626803 -0.38796452 0.62640721 -3.034388e+38
2.4279401 0.5239076 0.62178588 -2.9799139e+38
2.4461164 0.52295834 0.61931229 -3.260146e+38
2.4481115 0.51870894 0.61906219 -3.246539e+38
2.4511178 0.51465231 0.61867326 -3.2197982e+38
2.4692934 0.51355922 0.61620057 -3.2197477e+38
2.467243 0.50846988 0.6165064 -3.2196954e+38
2.4510353 0.50066376 0.61875683 -3.3394819e+38
2.447974 0.49542266 0.6192013 nan
2.4479465 0.49076545 0.6192292 -3.366692e+38
2.4479191 0.48610815 0.61925697 -3.3400032e+38
2.4478915 0.48145095 0.61928487 -3.3134188e+38
2.4488754 0.47697896 0.61917382 -3.3401074e+38
2.45087 0.47268665 0.61892402 -3.3533476e+38
2.4528651 0.46838689 0.61867422 -3.353295e+38
2.4528375 0.46372032 0.61870205 -3.3799299e+38
2.4548321 0.45940939 0.61845243 nan
2.4679494 0.45702621 0.61667609 nan
2.469944 0.45267978 0.61642647 nan
2.4739609 0.4486703 0.61589956 -3.3801905e+38
2.4749439 0.44413489 0.61578894 -3.3801903e+38
2.4739053 0.43925878 0.61595583 -3.3801901e+38
2.4738774 0.43455303 0.61598396 -3.3801903e+38
2.4748607 0.43001205 0.61587334 -3.3534514e+38
2.4738219 0.42514151 0.61604023 -3.340107e+38
2.4737942 0.42043579 0.61606836 -3.3402111e+38
2.469722 0.41509345 0.61665118 -3.3402109e+38
2.452507 0.40772149 0.61903673 -3.3933782e+38
2.4524794 0.40305492 0.61906463 -3.3933782e+38
2.4524519 0.39838836 0.61909246 -3.379982e+38
2.4342263 0.39099157 0.62161595 -3.3400007e+38
2.4341989 0.38635859 0.62164366 -3.366635e+38
2.4523692 0.38438866 0.61917615 nan
2.469528 0.3822054 0.61684763 nan
2.4695003 0.37750712 0.61687577 nan
2.4532974 0.37053126 0.61912125 -3.2736432e+38
2.4360843 0.36347464 0.62150496 -2.873366e+38
2.4360569 0.3588379 0.62153262 -2.8070137e+38
2.4360294 0.3542012 0.62156034 -2.8336504e+38
2.4349911 0.34942961 0.62172657 -2.8072194e+38
2.4883285 -0.19751945 0.61728179 -3.0478375e+38
2.4883003 -0.2022588 0.61731011 -3.0073343e+38
2.4721191 -0.20560369 0.6195339 -2.8470966e+38
2.4751201 -0.21058023 0.6191504 -3.3264981e+38
2.4750922 -0.21529531 0.61917859 nan
2.4770832 -0.22019589 0.61893249 nan
2.4760461 -0.22482009 0.61909777 nan
2.4699612 -0.22895813 0.61994898 nan
2.4870951 -0.23533583 0.6176455 nan
2.487067 -0.24007329 0.61767381 nan
2.4900675 -0.24511701 0.61729074 nan
2.4900396 -0.24986008 0.61731905 nan
2.4879928 -0.25439152 0.61762166 nan
2.4920027 -0.2595616 0.61710161 nan
2.4939935 -0.26452747 0.61685586 -3.3400557e+38
2.4939654 -0.26927802 0.61688423 -3.3667938e+38
2.4989846 -0.27459493 0.61622727 -3.3801901e+38
2.4767492 -0.2768217 0.61927086 nan
2.4545145 -0.27896628 0.6223138 nan
2.457515 -0.28400066 0.62193072 nan
2.4605153 -0.28904626 0.62154764 nan
2.4655347 -0.29434827 0.62089062 nan
2.4604599 -0.29842418 0.62160367 nan
2.4765821 -0.30513456 0.61944008 nan
2.4755449 -0.30972517 0.61960512 nan
2.477536 -0.31470224 0.61935949 nan
2.4855826 -0.32047844 0.61829203 nan
2.4845452 -0.32508022 0.61845732 nan
2.4794705 -0.32913566 0.61917019 nan
2.4794428 -0.33386007 0.61919844 nan
2.4794149 -0.33858445 0.61922669 -3.3931701e+38
2.4814057 -0.34359139 0.61898112 -3.3797729e+38
2.4642205 -0.34588632 0.6213364 -3.3931703e+38
2.4631832 -0.3504377 0.62150133 -3.3664853e+38
2.464165 -0.35527918 0.62139249 -3.3665372e+38
2.4621186 -0.35967812 0.62169421 -3.3532965e+38
2.4600725 -0.36406961 0.62199599 -3.3400042e+38
2.4600449 -0.36875859 0.622024 -3.2734391e+38
2.4569898 -0.37298456 0.62246245 -3.2069254e+38
2.4559529 -0.37751177 0.62262726 -3.1406212e+38
2.4569345 -0.38235125 0.62251842 -3.1140368e+38
2.4770901 -0.39023313 0.61981082 -3.034388e+38
2.4750438 -0.39463022 0.62011254 -3.0210438e+38
2.4282169 0.52387846 0.61717886 -2.9533279e+38
2.4302125 0.51966637 0.61692482 -3.2335599e+38
2.4322081 0.51544666 0.61667085 -3.2466404e+38
2.4331923 0.51101953 0.61655772 -3.2066078e+38
2.4513698 0.50996 0.61405128 -3.2329875e+38
2.4452739 0.50411844 0.61492383 -3.2063504e+38
2.4442351 0.49927217 0.6150924 -3.272913e+38
2.4462304 0.49500778 0.61483872 -3.3663756e+38
2.4340668 0.48806414 0.61655533 -3.3533449e+38
2.4340394 0.48343301 0.61658299 -3.3533455e+38
2.4512045 0.48198289 0.61421847 -3.3399521e+38
2.4491546 0.47694954 0.61452776 -3.3532965e+38
2.4531722 0.47302404 0.61399281 -3.3532963e+38
2.4531448 0.46835744 0.61402071 -3.3266066e+38
2.4531171 0.46369088 0.6140486 -3.3799275e+38
2.4530897 0.45902431 0.6140765 nan
2.4651968 0.45646882 0.61241657 nan
2.4722481 0.45299822 0.61146015 nan
2.4722204 0.44829622 0.61148822 -3.3932767e+38
2.4721925 0.44359422 0.61151636 -3.3933287e+38
2.4721649 0.43889216 0.61154443 -3.3667938e+38
2.4721372 0.43419015 0.6115725 -3.366794e+38
2.4721093 0.42948812 0.61160064 -3.366692e+38
2.4720817 0.42478612 0.61162871 -3.3533476e+38
2.4720538 0.42008409 0.61165684 -3.3667962e+38
2.4700036 0.41506377 0.61196601 -3.3666916e+38
2.4527867 0.40769204 0.61438322 -3.3932739e+38
2.452759 0.40302548 0.61441112 -3.3932741e+38
2.4527316 0.39835891 0.61443901 -3.379982e+38
2.4345038 0.39096233 0.61699593 -3.3666374e+38
2.4344766 0.38632935 0.61702359 -3.3799289e+38
2.4526489 0.38435921 0.61452264 nan
2.4698095 0.38217577 0.61216259 nan
2.4697819 0.3774775 0.6121906 nan
2.4343672 0.36779743 0.61713433 -3.2869348e+38
2.4151301 0.36049545 0.61983043 -2.873314e+38
2.4333014 0.35839283 0.61733019 -2.7936693e+38
2.433274 0.3537617 0.61735791 -2.8336502e+38
2.4936609 -0.19796656 0.61186022 -3.0743703e+38
2.4936328 -0.20271523 0.61188865 -2.9805441e+38
2.4734111 -0.20572054 0.61469853 -2.8470471e+38
2.4794414 -0.21096611 0.61389226 -3.3398456e+38
2.5016263 -0.21768843 0.61086124 nan
2.4854436 -0.2209678 0.61311448 nan
2.4833961 -0.22551227 0.61342084 nan
2.4773104 -0.22966333 0.6142832 nan
2.4793019 -0.23457883 0.6140334 nan
2.498457 -0.24120572 0.61142063 nan
2.5014577 -0.24626997 0.61103207 nan
2.5014296 -0.2510336 0.6110605 nan
2.4923151 -0.25484475 0.61233974 nan
2.4943061 -0.25980693 0.61209023 nan
2.5013452 -0.26532438 0.61114591 -3.366692e+38
2.501317 -0.27008799 0.6111744 -3.3667394e+38
2.5053272 -0.2753047 0.61064726 -3.3934287e+38
2.483089 -0.27754241 0.61373174 nan
2.4598422 -0.27958092 0.61695462 nan
2.4618337 -0.28450575 0.61670488 nan
2.4809866 -0.29149088 0.61409426 nan
2.4678352 -0.29462314 0.61592776 nan
2.4647791 -0.29895172 0.61637247 nan
2.4607131 -0.3031427 0.61695582 nan
2.4596763 -0.30770352 0.61712265 nan
2.462677 -0.31278083 0.61673427 nan
2.4868755 -0.32064024 0.61343086 nan
2.4828098 -0.32484251 0.61401445 nan
2.4797537 -0.32916546 0.61445904 nan
2.482754 -0.33430254 0.61407095 -3.3665879e+38
2.4827261 -0.33903253 0.6140992 -3.3398983e+38
2.4837077 -0.34390375 0.61398864 -3.36648e+38
2.4685392 -0.34648851 0.61609811 -3.3932222e+38
2.4685113 -0.35119238 0.61612624 -3.35335e+38
2.4674745 -0.35574943 0.61629301 -3.3133162e+38
2.4644186 -0.36000523 0.61673731 -3.339848e+38
2.4603534 -0.3640992 0.61732012 -3.3532443e+38
2.4613354 -0.36894062 0.61720943 -3.300075e+38
2.4572704 -0.37301412 0.61779219 -3.2200611e+38
2.4572427 -0.37769747 0.6178202 -3.1138283e+38
2.4572151 -0.38238081 0.61784816 -3.127277e+38
2.4753542 -0.38994306 0.61538059 -3.0210436e+38
2.4743171 -0.3944982 0.61554742 -2.9944069e+38
2.4274824 0.52364355 0.61271453 -2.9798604e+38
2.4284663 0.51922941 0.61259949 -3.286729e+38
2.4304624 0.51501352 0.6123417 -3.2864649e+38
2.4304349 0.5103898 0.61236936 -3.23314e+38
2.4465916 0.50893897 0.61011469 -3.1932147e+38
2.444541 0.5038926 0.6104278 -3.1932139e+38
2.4435024 0.4990482 0.61059821 -3.24664e+38
2.443475 0.49440032 0.61062598 -3.3267068e+38
2.4333329 0.48784405 0.61207974 -3.3267099e+38
2.4322941 0.48302582 0.61224991 -3.3400545e+38
2.451484 0.48195347 0.60956866 -3.3533474e+38
2.4534793 0.4776611 0.6093114 -3.3400551e+38
2.4514289 0.47262779 0.60962439 -3.3532965e+38
2.4554467 0.46869102 0.6090821 -3.3266068e+38
2.4392374 0.46114641 0.61139053 -3.3399993e+38
2.4392099 0.45650595 0.61141831 -3.3533439e+38
2.4492962 0.45362461 0.61002088 -3.3799293e+38
2.4533141 0.44966167 0.60947871 nan
2.4532866 0.44499514 0.60950661 -3.3931737e+38
2.4492137 0.43964729 0.61010438 -3.379881e+38
2.4491861 0.4349882 0.61013222 -3.3933784e+38
2.4491587 0.43032905 0.61016005 -3.3933784e+38
2.4693573 0.42896432 0.60733914 -3.366794e+38
2.4521372 0.42149946 0.60978848 -3.3667942e+38
2.4521098 0.41683474 0.60981637 -3.3800885e+38
2.451071 0.41201091 0.6099866 -3.366692e+38
2.4510436 0.40734807 0.6100145 -3.3666916e+38
2.4510159 0.40268523 0.61004233 -3.3666918e+38
2.4509885 0.39802238 0.61007023 -3.3798291e+38
2.4347816 0.39093307 0.61237586 -3.3398995e+38
2.4347541 0.38630009 0.61240351 -3.379825e+38
2.450906 0.38403386 0.61015379 nan
2.4630127 0.38112372 0.60847378 nan
2.4468062 0.37413144 0.61077881 nan
2.4346447 0.36776817 0.61251426 -3.28699e+38
2.4154058 0.36046642 0.6152457 -2.8466774e+38
2.4153786 0.35586891 0.61527318 -2.8202528e+38
2.41434 0.35113463 0.61544293 -2.8469416e+38
2.4929357 -0.1979131 0.60726583 -3.034285e+38
2.4939175 -0.20274521 0.60715324 -2.9673009e+38
2.4736934 -0.20575029 0.61000037 -2.8871298e+38
2.4817441 -0.21117403 0.60890108 -3.3397415e+38
2.4837353 -0.21608211 0.60864758 nan
2.4857271 -0.22099768 0.60839391 nan
2.4856992 -0.2257314 0.60842228 nan
2.4796128 -0.2298861 0.60929579 nan
2.4795849 -0.23460865 0.60932404 nan
2.4987419 -0.24123576 0.60667592 nan
2.5017431 -0.24630004 0.60628182 nan
2.5017149 -0.25106367 0.60631025 nan
2.4946189 -0.25508636 0.60732448 nan
2.4945908 -0.25983691 0.60735297 nan
2.4834561 -0.26338226 0.60893023 -3.3665861e+38
2.4854476 -0.26833507 0.60867679 -3.3931155e+38
2.5116708 -0.27601466 0.60504478 nan
2.4904399 -0.2783784 0.60802948 nan
2.4651713 -0.28019565 0.61157697 nan
2.4651437 -0.28489208 0.61160505 nan
2.4671347 -0.28983006 0.61135149 nan
2.4721553 -0.29514334 0.61067593 nan
2.4680893 -0.29935485 0.61126697 nan
2.4650328 -0.30367777 0.61171728 nan
2.4599571 -0.30773309 0.61244869 nan
2.4619486 -0.31268036 0.61219537 nan
2.4689877 -0.31829491 0.61123872 nan
2.4851124 -0.32513997 0.6090163 nan
2.4810467 -0.32933095 0.60960716 nan
2.4890947 -0.33515769 0.60851038 -3.3665879e+38
2.4890666 -0.33989888 0.60853875 -3.3398985e+38
2.4850006 -0.34407493 0.60912943 -3.3400516e+38
2.4819443 -0.34837922 0.6095795 -3.3800335e+38
2.4798973 -0.35281736 0.60988891 -3.3533484e+38
2.4717939 -0.35636666 0.61104184 -3.3265555e+38
2.4667187 -0.3603324 0.61177284 -3.3531922e+38
2.4626534 -0.3644301 0.6123631 -3.3532443e+38
2.4606066 -0.36881778 0.61267221 -3.3000239e+38
2.4525037 -0.37227193 0.61382461 -3.2601471e+38
2.4494481 -0.37647733 0.61427408 -3.0874517e+38
2.4524486 -0.38162002 0.61388046 -3.0608156e+38
2.4715993 -0.38933304 0.61123884 -3.0076479e+38
2.470562 -0.3938807 0.61140746 -2.9810112e+38
2.4277589 0.52361441 0.60810941 -2.9665724e+38
2.4287431 0.51920027 0.60799247 -3.2200631e+38
2.4307394 0.51498431 0.60773098 -3.2730191e+38
2.4286888 0.50996035 0.60804766 -3.2463824e+38
2.4468706 0.50890958 0.60547423 -3.2331439e+38
2.4458313 0.50405973 0.60564649 -3.2464879e+38
2.4437809 0.49901888 0.60596329 -3.2732272e+38
2.4366722 0.49302217 0.60700238 -3.3132602e+38
2.4346216 0.48800567 0.60731894 -3.3267078e+38
2.4366176 0.48375246 0.60705769 -3.3400525e+38
2.4517634 0.48192403 0.60491884 -3.3400547e+38
2.453759 0.47763166 0.60465783 -3.3533995e+38
2.4496853 0.47223163 0.60526347 -3.3666421e+38
2.4567385 0.46884301 0.60428041 -3.3400044e+38
2.4425495 0.461656 0.6063298 -3.340052e+38
2.4445453 0.45736548 0.60606891 -3.3666887e+38
2.4485638 0.4534193 0.60551912 -3.3535009e+38
2.4495478 0.44893607 0.60540271 -3.3667942e+38
2.4495203 0.44427699 0.60543054 -3.3666423e+38
2.4494927 0.43961787 0.60545838 -3.3532973e+38
2.4484539 0.43479034 0.60563046 -3.3799319e+38
2.4484262 0.4301331 0.60565829 -3.3932761e+38
2.4494102 0.42564055 0.60554188 -3.3933784e+38
2.4534285 0.42163286 0.60499245 nan
2.4554234 0.41728821 0.60473192 -3.393327e+38
2.4513505 0.41198146 0.60533679 nan
2.4493003 0.40700412 0.60565329 -3.393225e+38
2.4492729 0.402345 0.60568112 -3.3932773e+38
2.4492452 0.39768592 0.60570896 -3.3666934e+38
2.4330366 0.39060053 0.60804433 -3.3533482e+38
2.4350317 0.38627085 0.60778356 -3.3664285e+38
2.4511852 0.38400441 0.60550398 nan
2.4582369 0.38036391 0.60452259 nan
2.4379835 0.37280443 0.60743409 nan
2.4308772 0.36716965 0.60847104 -3.3135754e+38
2.4146695 0.36029699 0.61080521 -2.8198328e+38
2.4126203 0.35542414 0.61112094 -2.7935099e+38
2.4125931 0.35083222 0.61114836 -2.8469396e+38
2.4942019 -0.20277518 0.60241789 -2.9939392e+38
2.4719555 -0.20560567 0.60558772 -2.9538009e+38
2.4759674 -0.21066952 0.60504472 -3.2865722e+38
2.4799793 -0.21574828 0.60450184 nan
2.4819715 -0.22065641 0.60424447 nan
2.4819436 -0.22538269 0.60427266 nan
2.4778757 -0.2297229 0.60487199 nan
2.4970353 -0.23631102 0.60218829 nan
2.4929681 -0.24066427 0.60278755 nan
2.5000086 -0.24612591 0.60181701 nan
2.5009904 -0.25098974 0.60170275 nan
2.4938936 -0.25501055 0.60273004 nan
2.4736698 -0.25760493 0.60561186 nan
2.4807103 -0.26308334 0.60464132 -3.3933272e+38
2.482702 -0.26803061 0.6043843 -3.3933784e+38
2.4927719 -0.2738919 0.6029861 nan
2.4927437 -0.27863872 0.60301447 nan
2.4694915 -0.2806935 0.60632312 nan
2.4674442 -0.28515959 0.60663635 nan
2.4694359 -0.29010126 0.60637933 -3.3932275e+38
2.4724374 -0.29517308 0.60597962 nan
2.4703903 -0.29963356 0.60629296 nan
2.4683433 -0.30408654 0.60660625 nan
2.4673054 -0.30866036 0.60677677 nan
2.4692972 -0.31362072 0.60651988 nan
2.4844143 -0.32030413 0.60440993 nan
2.4813576 -0.32463452 0.60486579 nan
2.4823391 -0.32949647 0.60475165 -3.393223e+38
2.4853401 -0.33463734 0.60435236 -3.3665358e+38
2.4853122 -0.33937109 0.60438061 -3.3798796e+38
2.5004282 -0.34622431 0.60227185 -3.3665847e+38
2.4872754 -0.34912488 0.60415232 -3.3799297e+38
2.4852285 -0.35357231 0.60446548 -3.3533476e+38
2.4791431 -0.35742468 0.60534847 -3.3400032e+38
2.4710386 -0.36095709 0.60651606 -3.3665358e+38
2.4629345 -0.36445972 0.6076836 -3.3798804e+38
2.4558401 -0.36808491 0.6087085 -3.3399521e+38
2.4497552 -0.37183836 0.60959083 -3.273387e+38
2.4497278 -0.37650678 0.60961872 -3.1138294e+38
2.4658523 -0.38370469 0.60736859 -3.0739008e+38
2.4648151 -0.38824305 0.60753912 -2.980908e+38
2.4637778 -0.39277762 0.60770947 -2.9809597e+38
2.4280357 0.52358526 0.6035043 -2.9665194e+38
2.4290199 0.51917106 0.60338551 -3.2200104e+38
2.4310164 0.51495516 0.60312033 -3.2730195e+38
2.4289656 0.50993115 0.6034407 -3.2596232e+38
2.4471493 0.5088802 0.60083377 -3.2331439e+38
2.44611 0.50403035 0.60100794 -3.2464877e+38
2.4440594 0.49898952 0.60132837 -3.2998097e+38
2.439985 0.49357092 0.60194153 -3.3398949e+38
2.4440045 0.48969373 0.60138392 -3.326707e+38
2.4470119 0.48561269 0.60097277 -3.3533445e+38
2.454066 0.48226878 0.59997648 -3.3266062e+38
2.4560616 0.47797266 0.59971178 -3.339951e+38
2.4499645 0.47220224 0.60061735 -3.3399523e+38
2.4539835 0.46826905 0.60006016 -3.3399521e+38
2.4620488 0.46503946 0.59891796 -3.3400545e+38
2.4417892 0.45680287 0.60187083 -3.3533985e+38
2.4468198 0.4530381 0.60116744 -3.3535009e+38
2.4680352 0.45203903 0.59812462 -3.3668459e+38
2.4487879 0.44407541 0.60093057 -3.3799859e+38
2.4487603 0.4394182 0.60095841 -3.3666411e+38
2.4487329 0.43476093 0.60098624 -3.3798802e+38
2.4487054 0.43010369 0.60101408 -3.3799317e+38
2.4486778 0.42544645 0.60104185 nan
2.451685 0.42127767 0.60063124 nan
2.4557033 0.41725871 0.60007465 nan
2.4516299 0.41195202 0.60068697 -3.3932765e+38
2.4516022 0.40728918 0.60071486 -3.3933788e+38
2.4495521 0.40231562 0.601035 nan
2.4495244 0.39765653 0.60106283 -3.3799845e+38
2.4515197 0.39330065 0.60079843 -3.3399504e+38
2.4535153 0.38893735 0.6005342 -3.3532376e+38
2.4514647 0.38397497 0.60085416 nan
2.4554827 0.37989631 0.60029781 nan
2.4514096 0.37464929 0.60090989 nan
2.448348 0.36955956 0.60137588 -3.3269212e+38
2.4321384 0.36265537 0.60374004 -2.8198857e+38
2.4290771 0.35761231 0.60420567 -2.79356e+38
2.42905 0.35299051 0.60423332 -2.8336974e+38
2.4763057 -0.20126911 0.60028648 -2.9134544e+38
2.4702177 -0.20546098 0.60118258 -2.9133495e+38
2.4712 -0.21025394 0.60106611 -3.3130521e+38
2.4964225 -0.21723303 0.59747827 nan
2.4782143 -0.22031505 0.60010999 nan
2.4771767 -0.2249392 0.60028273 nan
2.4892685 -0.23081449 0.59857577 -3.366432e+38
2.4912603 -0.23575065 0.59831482 -3.379776e+38
2.4912324 -0.24049371 0.59834313 nan
2.499284 -0.24605381 0.59721494 nan
2.498246 -0.25070781 0.59738791 nan
2.4871087 -0.25429949 0.59900641 nan
2.4749618 -0.25774235 0.60076916 nan
2.4809933 -0.26311317 0.59993017 -3.3932248e+38
2.4819756 -0.26794901 0.59981388 nan
2.4890168 -0.27346855 0.5988307 nan
2.4889886 -0.2782079 0.59885901 nan
2.4728029 -0.28107437 0.60119885 nan
2.4727752 -0.28578386 0.60122699 nan
2.4707277 -0.29025176 0.60154414 -3.3799344e+38
2.4777687 -0.29581609 0.6005612 nan
2.4726918 -0.2999123 0.60131145 nan
2.4706445 -0.304369 0.60162854 nan
2.4685972 -0.30881828 0.6019454 nan
2.4736183 -0.31417087 0.60125148 nan
2.4816687 -0.31993809 0.60012454 nan
2.4816408 -0.32466432 0.60015279 nan
2.4856517 -0.32993346 0.59960353 nan
2.4876432 -0.33494237 0.59934312 -3.3798802e+38
2.4876153 -0.33967984 0.59937143 -3.3798798e+38
2.4997039 -0.34611309 0.59766781 -3.3799297e+38
2.488569 -0.34929797 0.59928381 -3.3799303e+38
2.4875314 -0.35389224 0.59945637 -3.3665358e+38
2.4814456 -0.3577483 0.6003505 -3.3398991e+38
2.4733403 -0.3612844 0.60153306 -3.3798802e+38
2.4652352 -0.36479056 0.60271549 -3.3932252e+38
2.4591494 -0.36857197 0.60360914 -3.3132121e+38
2.4560928 -0.37279409 0.60406995 -3.233354e+38
2.4560652 -0.37747371 0.60409784 -3.113776e+38
2.4681532 -0.38405061 0.602395 -3.0605034e+38
2.4661059 -0.38843265 0.60271156 -2.9808039e+38
2.4670877 -0.39329281 0.60259539 -2.9675632e+38
2.4761465 -0.39946625 0.60132569 -2.9410818e+38
2.4293242 0.52376181 0.59875083 -2.9666768e+38
2.4292967 0.51914191 0.59877849 -3.2201151e+38
2.4292696 0.51452196 0.59880608 -3.273069e+38
2.4292424 0.509902 0.59883368 -3.2464327e+38
2.4474282 0.50885081 0.59619319 -3.2331439e+38
2.4443653 0.50360811 0.59666568 -3.2464875e+38
2.4443378 0.4989602 0.59669346 -3.3131529e+38
2.4422865 0.49392697 0.59701753 -3.3531859e+38
2.444283 0.48966441 0.59674901 -3.3133626e+38
2.4452672 0.48520544 0.59662861 -3.3267078e+38
2.4543457 0.48223934 0.59532291 -3.3266584e+38
2.4573534 0.47812837 0.59490639 -3.3266586e+38
2.4522669 0.47253948 0.59567499 -3.3000746e+38
2.4522395 0.46787664 0.59570289 -3.3133669e+38
2.4562588 0.46393225 0.59513831 -3.3267103e+38
2.4349852 0.45552936 0.59827638 -3.3533987e+38
2.4379933 0.45142585 0.59785968 -3.3535009e+38
2.463258 0.45113945 0.59418541 -3.3668457e+38
2.4450202 0.44335747 0.59687871 -3.3666922e+38
2.4490395 0.43938881 0.59631425 -3.3666918e+38
2.4469886 0.43439472 0.5966382 -3.3534492e+38
2.4469612 0.42974123 0.59666598 -3.3533969e+38
2.448957 0.42541707 0.5963977 -3.3799279e+38
2.4489293 0.42075983 0.59642553 -3.3933248e+38
2.4539602 0.41690734 0.59571332 nan
2.4539325 0.4122408 0.59574121 -3.3932246e+38
2.4539051 0.40757421 0.59576911 -3.3932739e+38
2.4518542 0.40259692 0.59609294 -3.393326e+38
2.4518266 0.39793408 0.59612083 -3.3667421e+38
2.4538224 0.39357451 0.59585279 -3.3000194e+38
2.4355869 0.38621235 0.59854352 -3.3397892e+38
2.4335365 0.38128358 0.59886706 nan
2.4517167 0.37928274 0.5962323 nan
2.4486544 0.37418744 0.59670389 nan
2.448627 0.36953017 0.59673172 -3.287044e+38
2.4314041 0.36248574 0.59927344 -2.8066454e+38
2.4293542 0.35758314 0.5995968 -2.7534235e+38
2.429327 0.35296133 0.59962445 -2.8201979e+38
2.4292996 0.34833953 0.59965205 -2.8072189e+38
2.4967914 -0.20300585 0.59265399 -2.9801796e+38
2.4715097 -0.20557788 0.59634531 -2.9533858e+38
2.4735022 -0.2104618 0.59608048 -3.2997598e+38
2.4997375 -0.21753587 0.59229976 nan
2.5017297 -0.22247946 0.59203511 nan
2.4996815 -0.22705188 0.59235662 nan
2.4935927 -0.23123062 0.5932638 nan
2.4935648 -0.23597741 0.59329218 -3.393279e+38
2.4894965 -0.2403231 0.59390628 nan
2.5036094 -0.24649242 0.59188455 nan
2.5015609 -0.25104985 0.59220588 nan
2.4853723 -0.25411761 0.59457684 nan
2.4772644 -0.25798759 0.59577632 nan
2.4832966 -0.26336217 0.59492618 -3.3932246e+38
2.4822588 -0.26797882 0.59510082 -3.3933784e+38
2.4882905 -0.27338511 0.59425092 nan
2.4882627 -0.27812257 0.59427923 nan
2.4771252 -0.28157234 0.59591722 nan
2.4770973 -0.28628927 0.59594542 -3.3931739e+38
2.4730296 -0.29052302 0.59655887 -3.3931733e+38
2.4780514 -0.29584587 0.59585559 nan
2.4749937 -0.30019104 0.59632254 nan
2.4729462 -0.30465153 0.59664333 nan
2.4729183 -0.30936101 0.59667146 nan
2.4587522 -0.31224868 0.59874725 nan
2.463774 -0.317592 0.59804398 nan
2.4839435 -0.32496193 0.59514731 nan
2.4859354 -0.32996336 0.59488308 -3.3933279e+38
2.4838877 -0.33442196 0.59520382 -3.3664851e+38
2.4838598 -0.33915195 0.59523207 -3.3664849e+38
2.4838316 -0.34388193 0.59526032 -3.3665358e+38
2.4858236 -0.34889832 0.59499621 -3.3665358e+38
2.4888251 -0.35406724 0.59458601 -3.3664318e+38
2.4887972 -0.35880658 0.59461433 -3.3530876e+38
2.4837201 -0.362802 0.59537339 -3.3664326e+38
2.4705653 -0.36557353 0.59730148 -3.379777e+38
2.484674 -0.3724145 0.59528375 -3.3266598e+38
2.4644511 -0.37405866 0.59823442 -3.2466976e+38
2.4634137 -0.37859699 0.59840858 -3.1537565e+38
2.4613664 -0.38297346 0.59872878 -3.1272766e+38
2.4785044 -0.39038208 0.59627336 -3.0210448e+38
2.479486 -0.39526463 0.59615552 -3.0077004e+38
2.4794581 -0.39998719 0.59618372 -2.9811688e+38
2.427577 0.52332115 0.59444404 -2.9799652e+38
2.4275498 0.51870489 0.59447169 -3.2334564e+38
2.4285345 0.51429075 0.59434915 -3.2331942e+38
2.4295192 0.50987285 0.59422666 -3.2198498e+38
2.4477069 0.50882143 0.59155273 -3.2331439e+38
2.4446437 0.50357878 0.59203076 -3.2464875e+38
2.4446163 0.49893084 0.59205854 -3.3397894e+38
2.4445889 0.49428296 0.59208632 -3.3797707e+38
2.4445615 0.48963505 0.59211409 -3.3398433e+38
2.4455457 0.48517609 0.59199184 -3.3531884e+38
2.4455183 0.48052633 0.59201962 -3.3266062e+38
2.4475148 0.47624692 0.5917474 -3.3266584e+38
2.4687362 0.47544327 0.58862525 -3.3001259e+38
2.4616253 0.46948037 0.5897032 -3.3001255e+38
2.4615979 0.46480075 0.5897311 -3.3400525e+38
2.4524639 0.45852154 0.59110886 -3.3666891e+38
2.4574955 0.45473802 0.59038687 -3.3401565e+38
2.457468 0.45006585 0.59041482 -3.3535015e+38
2.4614873 0.4460822 0.58984292 -3.3666926e+38
2.4685421 0.44259444 0.58882153 -3.3533482e+38
2.4664907 0.437565 0.58914936 -3.3401068e+38
2.4664631 0.43287602 0.58917737 -3.326762e+38
2.4492359 0.42538765 0.59175354 -3.3533441e+38
2.4492085 0.42073041 0.59178132 -3.3666891e+38
2.4542396 0.41687787 0.59105986 -3.393225e+38
2.4521885 0.41189316 0.59138745 -3.3932244e+38
2.4511492 0.40707311 0.59156513 -3.3799804e+38
2.453145 0.40272287 0.59129333 -3.3933769e+38
2.4541295 0.3982116 0.59117144 -3.3401567e+38
2.454102 0.39354503 0.59119934 -3.2733821e+38
2.4358644 0.38618311 0.59392345 -3.3397894e+38
2.4338138 0.38125437 0.59425074 nan
2.4519958 0.3792533 0.59158254 nan
2.4489336 0.37415802 0.59205967 nan
2.4489062 0.36950076 0.59208751 -3.2603026e+38
2.4134727 0.35992911 0.59735614 -2.7932484e+38
2.4134457 0.35533717 0.59738362 -2.7401308e+38
2.4316266 0.35320547 0.59471619 -2.7668718e+38
2.4295766 0.34831035 0.59504318 -2.7136018e+38
2.497076 -0.20303585 0.58791482 -2.9005813e+38
2.4748225 -0.20586926 0.59120762 -2.8203575e+38
2.472774 -0.21040246 0.59153247 -3.3128959e+38
2.5030534 -0.21783878 0.58710986 nan
2.5040355 -0.22269519 0.58699006 nan
2.5040073 -0.22746065 0.58701849 nan
2.4938772 -0.23126058 0.58853018 nan
2.4938493 -0.23600736 0.58855855 nan
2.4897804 -0.24035302 0.58918017 nan
2.5059152 -0.24672681 0.58683586 nan
2.5028565 -0.25118396 0.58730912 nan
2.4856558 -0.25414747 0.58985817 nan
2.4765368 -0.25790963 0.59122086 nan
2.4835799 -0.26339203 0.59021121 -3.3798802e+38
2.4815316 -0.26789722 0.590536 nan
2.4855442 -0.27307495 0.5899713 nan
2.4865263 -0.27792212 0.58985138 nan
2.4774077 -0.28160214 0.59121346 nan
2.4773798 -0.28631908 0.59124166 nan
2.4733117 -0.29055277 0.59186256 nan
2.4843943 -0.2966117 0.59026092 -3.3932739e+38
2.4803264 -0.30084354 0.59088176 nan
2.4762583 -0.30506042 0.59150255 nan
2.4762306 -0.30977556 0.59153068 nan
2.4590328 -0.31227824 0.59407699 nan
2.4630451 -0.31748959 0.59351259 nan
2.483217 -0.32485789 0.59057856 nan
2.485209 -0.32985747 0.59031057 nan
2.4831612 -0.3343142 0.59063506 -3.3798802e+38
2.4831333 -0.33904234 0.59066331 -3.3665358e+38
2.4861352 -0.34419447 0.59024739 -3.3665356e+38
2.4911568 -0.34964424 0.58953542 -3.3798281e+38
2.4951684 -0.35496753 0.58897173 -3.3664318e+38
2.4931207 -0.35942423 0.58929604 -3.3397431e+38
2.4850135 -0.3629806 0.59050846 -3.3662766e+38
2.4789264 -0.3668085 0.59142482 -3.3797772e+38
2.4718292 -0.37046149 0.59248894 -3.3001279e+38
2.4657426 -0.37424272 0.59340507 -3.2067696e+38
2.4657147 -0.37893918 0.59343308 -3.1535492e+38
2.4616475 -0.38300306 0.59405291 -3.0470037e+38
2.4585905 -0.38721204 0.5945248 -2.9407735e+38
2.4595726 -0.39205724 0.59440488 -2.9542214e+38
2.4615643 -0.3970699 0.59413695 -2.9410841e+38
2.4086506 0.52396429 0.5927012 -2.620607e+38
2.4086237 0.51938361 0.59272861 -2.966516e+38
2.4268141 0.51847208 0.59002036 -3.2466962e+38
2.4267869 0.51385772 0.59004796 -3.2331946e+38
2.4318202 0.51024389 0.58931577 -3.2198502e+38
2.4479856 0.5087921 0.58691227 -3.2197995e+38
2.4479582 0.50413859 0.58694005 -3.2598319e+38
2.4479308 0.49948505 0.58696783 -3.3265502e+38
2.4448674 0.49425364 0.5874514 -3.3398427e+38
2.44484 0.48960572 0.58747917 -3.3397912e+38
2.4478483 0.48552456 0.58705127 -3.3531877e+38
2.4478209 0.48087102 0.58707905 -3.3267076e+38
2.4477935 0.47621754 0.58710694 -3.3267078e+38
2.4669931 0.47504705 0.58424932 -3.3268121e+38
2.4689896 0.47072098 0.58397371 -3.32676e+38
2.468962 0.4660283 0.58400178 -3.3399997e+38
2.4638746 0.46044701 0.58478892 -3.3666885e+38
2.4638469 0.45576367 0.58481693 -3.3401046e+38
2.4617953 0.45073232 0.58514845 -3.3535015e+38
2.4617677 0.44605267 0.58517647 -3.3666413e+38
2.4688234 0.44256482 0.58414197 -3.3533482e+38
2.4687958 0.43787214 0.58417004 -3.3535013e+38
2.4687679 0.43317947 0.58419806 -3.3667934e+38
2.4495149 0.42535827 0.58710927 -3.3799802e+38
2.4494874 0.42070103 0.5871371 -3.3799804e+38
2.4545193 0.41684842 0.58640629 -3.3933254e+38
2.4514561 0.41170466 0.58688939 -3.379981e+38
2.4504168 0.40688649 0.58706892 -3.3799802e+38
2.4503894 0.40222737 0.58709675 -3.3933246e+38
2.453397 0.3980287 0.58666956 -3.3534478e+38
2.457417 0.39397037 0.58609074 -3.3266549e+38
2.4391773 0.38660303 0.58884847 -3.339791e+38
2.4361148 0.38152087 0.58933103 -3.3931688e+38
2.454299 0.37951586 0.58662939 nan
2.4522479 0.37456098 0.58696055 nan
2.4522202 0.36989817 0.58698845 -3.2336668e+38
2.4167831 0.36032131 0.59232235 -2.739872e+38
2.4167559 0.3557238 0.59234983 -2.41987e+38
2.4329154 0.35331297 0.58995205 -2.1934858e+38
2.4318764 0.34855077 0.59013116 -2.1004403e+38
2.4943297 -0.20280974 0.58362651 -2.6721219e+38
2.4740942 -0.20581178 0.58665961 -3.0457632e+38
2.4710355 -0.21025395 0.58713853 -3.2598327e+38
2.5033388 -0.21786885 0.58235961 nan
2.5023003 -0.22253959 0.58253831 nan
2.5002515 -0.22711195 0.58286721 nan
2.4870894 -0.23061456 0.58484793 nan
2.4870615 -0.2353483 0.5848763 nan
2.4900644 -0.24038294 0.58445406 nan
2.4981186 -0.24593958 0.58328116 nan
2.4960699 -0.25048578 0.58360994 nan
2.4859393 -0.25417736 0.58513951 nan
2.4717681 -0.2574006 0.58726943 nan
2.4767914 -0.26265451 0.58654714 -3.3932244e+38
2.4767635 -0.26736954 0.58657527 -3.3933246e+38
2.4827971 -0.27276477 0.5857029 nan
2.4807487 -0.27726063 0.58603132 nan
2.47668 -0.28151479 0.58665979 nan
2.4776626 -0.28634885 0.5865379 -3.3931739e+38
2.4776347 -0.29106581 0.58656609 -3.3931733e+38
2.4917488 -0.29750037 0.58449382 nan
2.4836397 -0.301247 0.58572245 nan
2.4805815 -0.3055959 0.58620065 nan
2.4805536 -0.31031844 0.58622885 nan
2.4522424 -0.31139675 0.59045672 nan
2.4572654 -0.3167271 0.58973467 nan
2.4592581 -0.32167453 0.5894627 nan
2.4875128 -0.33015889 0.58529204 -3.393121e+38
2.4854646 -0.33461922 0.58562028 -3.3664318e+38
2.4864469 -0.33949062 0.58549857 -3.3797758e+38
2.4864187 -0.34422436 0.58552682 -3.3665853e+38
2.491441 -0.34967417 0.58480561 -3.3665338e+38
2.4954531 -0.35499752 0.58423448 -3.3664318e+38
2.4934051 -0.35945421 0.58456254 -3.3530876e+38
2.485297 -0.3630105 0.58578992 -3.3531922e+38
