# .PCD v0.7 - Point Cloud Data file format
VERSION 0.7
FIELDS x y z rgb
SIZE 4 4 4 4
TYPE F F F F
COUNT 1 1 1 1
WIDTH 1321
HEIGHT 1
VIEWPOINT 0 0 0 1 0 0 0
POINTS 1321
DATA ascii
2.3499942 -0.51526725 0.88471144 nan
2.3215985 0.61521554 0.87786055 nan
2.3211217 0.61055458 0.8778885 nan
2.3226943 0.60619724 0.87784648 nan
2.3150463 0.60048258 0.87811959 nan
2.3022804 0.59405315 0.87856758 nan
2.2987347 0.58898485 0.87870038 nan
2.2982621 0.58436096 0.87872815 nan
2.2977891 0.57973707 0.87875587 nan
2.2973166 0.5751133 0.87878364 nan
2.2978668 0.57062823 0.87877649 nan
2.3158092 0.56846857 0.87817544 nan
2.3184013 0.56421483 0.87809861 nan
2.317924 0.55955005 0.87812662 nan
2.3174472 0.55488539 0.87815464 nan
2.3169703 0.55022061 0.87818265 nan
2.2991171 0.54338467 0.87880367 nan
2.3006873 0.53900325 0.87876177 nan
2.2981696 0.53411829 0.87885934 nan
2.2956529 0.52924085 0.87895685 nan
2.3186707 0.52737826 0.87818342 nan
2.3192139 0.52282453 0.87817669 nan
2.3187361 0.51815057 0.87820476 nan
2.3182583 0.51347661 0.87823284 nan
2.3361506 0.51083428 0.87763464 nan
2.3295469 0.50546074 0.87787163 nan
2.3147836 0.49923629 0.87838662 nan
2.3255267 0.49574628 0.87803233 nan
2.325047 0.49105552 0.87806052 nan
2.3255868 0.48646849 0.8780539 nan
2.3271461 0.4819794 0.87801266 nan
2.3083191 0.47548527 0.87866569 nan
2.3088613 0.47092047 0.87865901 nan
2.3083839 0.46625581 0.87868702 nan
2.3262434 0.46328864 0.87809086 nan
2.3328929 0.45923766 0.8778764 nan
2.3324108 0.45452654 0.87790465 nan
2.3319292 0.44981542 0.87793297 nan
2.3507886 0.44675511 0.87730318 nan
2.3523383 0.44217882 0.87726247 nan
2.3518529 0.43742871 0.87729096 nan
2.351367 0.43267861 0.87731951 nan
2.3335891 0.42657763 0.87793607 nan
2.312767 0.42030704 0.87865603 nan
2.314322 0.41577709 0.87861502 nan
2.3301086 0.41227424 0.87809026 nan
2.3469057 0.408784 0.87753129 nan
2.3464203 0.40403759 0.87755978 nan
2.3662558 0.40065768 0.87689781 nan
2.3840518 0.39707056 0.87630534 nan
2.4038725 0.39354587 0.87564421 nan
2.4247012 0.39000958 0.8749491 nan
2.4404454 0.38609096 0.87442684 nan
2.4429874 0.38134533 0.87435299 nan
2.445528 0.37658861 0.8742792 nan
2.4450235 0.37165472 0.87430888 nan
2.4445186 0.36672086 0.87433851 nan
2.4440141 0.36178696 0.87436813 nan
2.4394531 0.35665408 0.87453544 nan
2.4389491 0.35172763 0.87456501 nan
2.4384456 0.34680119 0.87459457 nan
2.4156432 0.34090248 0.87538052 nan
2.4131169 0.33593222 0.87547863 nan
2.4105911 0.33096939 0.87557662 nan
2.4080663 0.32601395 0.87567466 nan
2.4278245 0.3218748 0.87501723 nan
2.4293475 0.31703305 0.87497807 nan
2.4288449 0.31211773 0.87500763 nan
2.4283423 0.30720243 0.87503713 nan
2.4318876 0.30240446 0.87492955 nan
2.4323959 0.29750925 0.87492478 nan
2.4329042 0.29261029 0.87492013 nan
2.4364462 0.28777894 0.87481272 nan
2.4349308 0.28282315 0.87487656 nan
2.4313927 0.27783096 0.87500888 nan
2.4308891 0.27290452 0.8750385 nan
2.4334178 0.2680271 0.87496543 nan
2.4298816 0.26305163 0.87509763 nan
2.4273572 0.25809988 0.87519562 nan
2.4268537 0.25317717 0.87522519 nan
2.4263506 0.24825442 0.87525475 nan
2.4056516 0.24319029 0.8759675 nan
2.4051518 0.2383047 0.87599683 nan
2.4248405 0.23348621 0.8753435 nan
2.4263554 0.2285665 0.87530482 nan
2.4288788 0.22363895 0.8752321 nan
2.4524527 -0.33524615 0.8758601 nan
2.4519334 -0.34032667 0.87589061 nan
2.3911605 -0.33270359 0.87792575 -3.1682511e+38
2.3985529 -0.33935165 0.87769282 nan
2.394094 -0.34348595 0.87785411 nan
2.3847008 -0.34653628 0.87817943 nan
2.3891287 -0.35257268 0.87804514 nan
2.3965149 -0.35928023 0.8778125 nan
2.3821931 -0.36119092 0.87830156 nan
2.3935232 -0.36880207 0.87793791 nan
2.3920283 -0.37355733 0.87800062 nan
2.3934913 -0.3789838 0.87796497 nan
2.3939676 -0.38419092 0.87796211 nan
2.4131722 -0.39374655 0.87733728 nan
2.4097023 -0.39807427 0.87746561 nan
2.4091897 -0.40308797 0.87749577 nan
2.4047365 -0.40716457 0.8776567 nan
2.4249077 -0.41712904 0.87700009 nan
2.3820486 -0.41194212 0.87843585 nan
2.3825254 -0.4171474 0.87843299 nan
2.3810329 -0.42187303 0.87849551 nan
2.3834782 -0.42756891 0.87842739 nan
2.3780499 -0.43131304 0.87862045 nan
2.3765588 -0.43602753 0.87868285 nan
2.3750682 -0.44073832 0.87874526 nan
2.3784943 -0.44670016 0.87864465 nan
2.3760204 -0.45115995 0.87873966 nan
2.3922238 -0.46045089 0.87821555 nan
2.3710742 -0.46005726 0.87892956 nan
2.3705678 -0.4650116 0.8789593 nan
2.372026 -0.47048628 0.87892395 nan
2.37643 -0.47675478 0.87879109 nan
2.3985095 -0.48779273 0.87807274 nan
2.377378 -0.48722088 0.87878573 nan
2.3827596 -0.49379778 0.87862051 nan
2.3891211 -0.50066662 0.87842304 nan
2.3925352 -0.50674725 0.87832308 nan
2.3900614 -0.51120329 0.87841803 nan
2.3522754 -0.50574911 0.87968159 nan
2.3507905 -0.51040041 0.87974364 nan
2.3502865 -0.51532686 0.87977326 nan
2.3049221 0.61714447 0.873788 nan
2.3044486 0.61251497 0.87381583 nan
2.3234482 0.61080563 0.8731426 nan
2.3035021 0.60325611 0.87387145 nan
2.2948322 0.59742683 0.87419426 nan
2.3025551 0.59399712 0.87392706 nan
2.2990093 0.58892894 0.8740654 nan
2.2985363 0.58430505 0.87409317 nan
2.2960162 0.57939613 0.87419462 nan
2.314991 0.5774492 0.87352282 nan
2.2981415 0.57057226 0.87413973 nan
2.3068771 0.56717938 0.87383634 nan
2.3186779 0.56415844 0.87342274 nan
2.3182011 0.55949366 0.87345082 nan
2.3177238 0.554829 0.87347883 nan
2.297821 0.54770267 0.87420517 nan
2.2993922 0.54332864 0.87415946 nan
2.2989182 0.53869557 0.87418729 nan
2.296401 0.53381431 0.87428856 nan
2.2959275 0.52918494 0.87431639 nan
2.2985187 0.52491629 0.87423408 nan
2.300087 0.52051818 0.87418854 nan
2.3190136 0.51809406 0.87351966 nan
2.3185353 0.5134201 0.87354767 nan
2.3364301 0.51077735 0.87291598 nan
2.3339076 0.50584799 0.87301755 nan
2.3313861 0.50092602 0.87311912 nan
2.3339658 0.49654785 0.87303746 nan
2.3263454 0.49110436 0.87332201 nan
2.3279047 0.48661891 0.87327701 nan
2.3121309 0.48039696 0.87385398 nan
2.3116536 0.47572854 0.87388206 nan
2.3111763 0.47106013 0.87391007 nan
2.310699 0.46639165 0.87393808 nan
2.3316164 0.4637033 0.87319875 nan
2.3311353 0.45899588 0.87322706 nan
2.3306537 0.45428848 0.87325531 nan
2.3301725 0.44958106 0.87328362 nan
2.3510699 0.44669771 0.87254548 nan
2.3505845 0.44195133 0.87257397 nan
2.3521347 0.43737128 0.87252957 nan
2.3516488 0.43262118 0.87255812 nan
2.3318348 0.42636174 0.87327921 nan
2.3130445 0.42025045 0.87396348 nan
2.3166337 0.41587195 0.87384582 nan
2.3324218 0.41236496 0.87329131 nan
2.3299065 0.40750241 0.87339252 nan
2.3273911 0.40264723 0.87349361 nan
2.4071856 0.40333185 0.87064749 nan
2.4066887 0.39847407 0.8706767 nan
2.4275231 0.39497268 0.86994231 nan
2.4249916 0.38995042 0.87004435 nan
2.4407372 0.38603145 0.86949229 nan
2.4463253 0.38146278 0.86930394 nan
2.4458208 0.37652895 0.86933357 nan
2.4453163 0.37159505 0.86936319 nan
2.4448113 0.36666119 0.86939281 nan
2.4443069 0.3617273 0.8694225 nan
2.4397454 0.35659453 0.8695972 nan
2.4189601 0.35071042 0.87035203 nan
2.4184604 0.34582108 0.87038141 nan
2.4159331 0.34084344 0.87048328 nan
2.4134064 0.33587322 0.87058508 nan
2.4108806 0.33091041 0.87068677 nan
2.4083557 0.325955 0.87078857 nan
2.4281158 0.3218154 0.87009388 nan
2.4296393 0.31697363 0.87005103 nan
2.4291368 0.3120583 0.87008059 nan
2.4286337 0.307143 0.87011009 nan
2.4321799 0.30234495 0.869995 nan
2.4326882 0.29744971 0.86998844 nan
2.4321847 0.29252514 0.87001806 nan
2.4337044 0.28764802 0.86997539 nan
2.4301662 0.28265405 0.87011325 nan
2.4296627 0.2777313 0.87014282 nan
2.4291596 0.27280855 0.87017244 nan
2.4286561 0.26788583 0.870202 nan
2.4281526 0.26296309 0.87023157 nan
2.4276495 0.25804037 0.87026113 nan
2.427146 0.25311765 0.8702907 nan
2.4266424 0.2481949 0.87032032 nan
2.4079609 0.24314538 0.87099814 nan
2.4074612 0.23825604 0.87102753 nan
2.4271512 0.2334334 0.87033701 nan
2.4508715 0.22854233 0.86950302 -3.3821287e+38
2.4503632 0.22357133 0.86953288 -3.3954731e+38
2.4715309 -0.3391943 0.87010729 nan
2.4710078 -0.3443101 0.87013799 nan
2.3894792 -0.33234704 0.87301606 -3.2350265e+38
2.3929229 -0.33815116 0.87290704 nan
2.3924146 -0.34312212 0.8729369 nan
2.3859825 -0.3468101 0.87317491 nan
2.3844881 -0.35155427 0.87323934 nan
2.3701639 -0.35346633 0.8737545 nan
2.3736067 -0.35927606 0.87364548 nan
2.388886 -0.36775589 0.87312078 nan
2.3903508 -0.37317121 0.87308145 nan
2.3918147 -0.3785941 0.87304205 nan
2.3913059 -0.38357067 0.87307191 nan
2.4114981 -0.39334983 0.87237525 nan
2.4099998 -0.39813483 0.87243992 nan
2.4094872 -0.40314853 0.87247002 nan
2.4050336 -0.40722513 0.87263846 nan
2.424222 -0.41695386 0.87197745 nan
2.3813581 -0.41176414 0.87349308 nan
2.3808508 -0.41672778 0.87352288 nan
2.380343 -0.4216913 0.87355274 nan
2.3827887 -0.42738551 0.87347901 nan
2.3783441 -0.43137306 0.87364686 nan
2.3758693 -0.43584025 0.87374568 nan
2.3773293 -0.44129646 0.87370646 nan
2.3787889 -0.44676018 0.87366736 nan
2.3763146 -0.45121992 0.87376606 nan
2.3944864 -0.46102065 0.87314147 nan
2.3713684 -0.46011716 0.87396348 nan
2.368896 -0.46455467 0.87406206 nan
2.3742852 -0.47106677 0.87388527 nan
2.3737779 -0.4760285 0.87391508 nan
2.3948784 -0.48679745 0.87318838 nan
2.3727632 -0.4859519 0.87397474 nan
2.3791285 -0.49278736 0.87376398 nan
2.3786197 -0.49776208 0.87379384 nan
2.3781109 -0.50273675 0.8738237 nan
2.3756399 -0.50716501 0.87392229 nan
2.3702264 -0.51076049 0.87412375 nan
2.3491211 -0.50990605 0.87487406 nan
2.3486176 -0.5148288 0.87490362 nan
2.3304658 -0.5146994 0.87555039 nan
2.3051968 0.61708844 0.86914754 nan
2.3047233 0.61245894 0.86917531 nan
2.3237247 0.61074924 0.86846673 nan
2.3037767 0.60320008 0.86923093 nan
2.2848601 0.59587157 0.86995602 nan
2.2987323 0.59334886 0.86944145 nan
2.297235 0.58858055 0.86950791 nan
2.298811 0.58424914 0.86945832 nan
2.3136954 0.58176321 0.86890566 nan
2.3152676 0.57739282 0.86885631 nan
2.3147912 0.57273734 0.86888427 nan
2.2969193 0.56575358 0.86956936 nan
2.3169088 0.56383175 0.86882424 nan
2.3184776 0.55943727 0.86877495 nan
2.3200459 0.55503547 0.86872572 nan
2.3001409 0.5479058 0.8694874 nan
2.3006897 0.54340029 0.86947668 nan
2.3002157 0.53876531 0.86950451 nan
2.2987194 0.53400636 0.86957091 nan
2.2982459 0.52937317 0.86959875 nan
2.2987938 0.52486026 0.86958802 nan
2.2983198 0.52022517 0.86961585 nan
2.3192906 0.51803756 0.8688345 nan
2.3188128 0.5133636 0.86886251 nan
2.3183351 0.50868952 0.86889064 nan
2.3178568 0.50401556 0.86891866 nan
2.3357468 0.5013057 0.86825395 nan
2.3485284 0.49799263 0.86778194 nan
2.3296838 0.49136388 0.8685028 nan
2.332263 0.48697633 0.86841565 nan
2.3266835 0.48176411 0.86863613 nan
2.3262033 0.47706971 0.86866438 nan
2.3216462 0.47198343 0.86884624 nan
2.3140335 0.46662357 0.86914331 nan
2.3298583 0.46345785 0.86855692 nan
2.3303957 0.45884648 0.86854684 -3.3828128e+38
2.3299146 0.45414096 0.8685751 nan
2.3294334 0.44943541 0.86860335 nan
2.3442245 0.44603246 0.86805624 nan
2.3498483 0.44180897 0.8678546 nan
2.3310432 0.43556812 0.86857313 nan
2.3305612 0.430857 0.86860144 nan
2.3117666 0.42471644 0.86931932 nan
2.3092537 0.41988358 0.86942405 nan
2.3108101 0.41536102 0.86937553 nan
2.3103318 0.4106833 0.86940366 nan
2.3098536 0.40600559 0.86943173 nan
2.3093748 0.40132788 0.86945987 nan
2.407474 0.40327311 0.86577815 nan
2.4069772 0.39841533 0.86580735 nan
2.4318771 0.3951717 0.86488092 nan
2.428329 0.39007938 0.86502504 nan
2.4450917 0.3862153 0.86440504 nan
2.4466181 0.38140315 0.86435831 nan
2.4461136 0.37646931 0.86438793 nan
2.4456091 0.37153542 0.86441755 nan
2.4451041 0.36660156 0.86444718 nan
2.4425707 0.36156452 0.86455315 nan
2.4380093 0.35643554 0.86473525 nan
2.4172225 0.3505556 0.86552727 nan
2.4187503 0.34576198 0.86548042 nan
2.3959475 0.33990145 0.86634803 nan
2.391397 0.33488381 0.86652946 nan
2.4091434 0.33077055 0.86587316 nan
2.4086452 0.32589608 0.86590242 nan
2.4304333 0.3218295 0.86509454 nan
2.4319563 0.31698394 0.86504793 nan
2.4344912 0.31216395 0.86496335 nan
2.4319625 0.30717704 0.86506897 nan
2.4314594 0.30225617 0.86509854 nan
2.4309564 0.2973353 0.8651281 nan
2.4334888 0.29249117 0.86504364 nan
2.4329853 0.28756472 0.86507326 nan
2.4314699 0.28261641 0.86514086 nan
2.429955 0.27767178 0.86520839 nan
2.4294515 0.27274904 0.86523795 nan
2.4289484 0.26782632 0.86526752 nan
2.4284449 0.26290357 0.86529708 nan
2.4279413 0.25798085 0.86532664 nan
2.4274383 0.25305814 0.86535621 nan
2.4289551 0.24815315 0.86531001 nan
2.4314814 0.24324778 0.86522603 nan
2.4107809 0.23821244 0.86601293 nan
2.4102802 0.23331755 0.86604238 nan
2.4097795 0.22842267 0.8660717 -3.3954733e+38
2.4649158 -0.33782405 0.86523557 nan
2.4624181 -0.34251392 0.8653394 nan
2.4144735 -0.3376146 0.86712605 -3.2749544e+38
2.3892665 -0.33737063 0.86807042 nan
2.3887587 -0.34233415 0.86810023 nan
2.3813396 -0.34580064 0.86838597 nan
2.3857694 -0.35182989 0.86823297 nan
2.3714437 -0.35374355 0.86877418 nan
2.367979 -0.35801911 0.86891335 nan
2.3842478 -0.36670947 0.86832237 nan
2.390646 -0.37323141 0.86809671 nan
2.3921099 -0.37865424 0.86805362 nan
2.390615 -0.3834039 0.86811996 nan
2.41081 -0.3931818 0.8673842 nan
2.4102974 -0.39819545 0.8674143 nan
2.4097848 -0.40320915 0.8674444 nan
2.4013891 -0.40634847 0.8677659 nan
2.4176254 -0.41536176 0.86717683 nan
2.3836226 -0.41230017 0.86844492 nan
2.3831148 -0.41726744 0.86847472 nan
2.3845763 -0.42271817 0.86843181 nan
2.3801303 -0.4267149 0.8686071 nan
2.3737178 -0.43020594 0.86885512 nan
2.3732114 -0.43515837 0.86888486 nan
2.3756566 -0.44085824 0.86880559 nan
2.3771167 -0.44631815 0.86876273 nan
2.3766093 -0.45127988 0.86879253 nan
2.39675 -0.46159053 0.86805999 nan
2.3942723 -0.46607804 0.86816257 nan
2.3917952 -0.47055817 0.86826515 nan
2.3961983 -0.47685283 0.86811376 nan
2.3956866 -0.48185539 0.8681438 nan
2.3951755 -0.48685789 0.86817384 nan
2.3730574 -0.48601186 0.86900115 nan
2.37746 -0.49231207 0.86884981 nan
2.3769512 -0.4972831 0.86887968 nan
2.3725166 -0.50116843 0.86905432 nan
2.3720093 -0.50613201 0.86908412 nan
2.3695397 -0.51054537 0.8691864 nan
2.3474512 -0.50941157 0.87001193 nan
2.3469481 -0.51433063 0.87004149 nan
2.3297758 -0.51447785 0.87068552 nan
2.3244786 0.61535752 0.86376286 nan
2.3024745 0.60746634 0.86464387 nan
2.2999516 0.60253704 0.86475289 nan
2.2851329 0.59581602 0.86534894 nan
2.3000307 0.59344101 0.86476779 nan
2.2975092 0.5885247 0.86487675 nan
2.2970371 0.58390456 0.86490446 nan
2.2945166 0.5789994 0.86501336 nan
2.3134961 0.57705516 0.86427081 nan
2.3130202 0.57240349 0.86429876 nan
2.297194 0.56569767 0.86493444 nan
2.2977443 0.5612089 0.86492175 nan
2.3167086 0.55911446 0.86418009 nan
2.320323 0.55497897 0.86404616 nan
2.3218913 0.55056953 0.86399329 nan
2.303009 0.54359961 0.86474961 nan
2.3004909 0.53870928 0.86485839 nan
2.2989945 0.53395033 0.8649267 nan
2.2985206 0.52931714 0.86495447 nan
2.3195024 0.52720881 0.8641336 nan
2.3190246 0.5225367 0.86416167 nan
2.3195682 0.51798105 0.86414933 nan
2.3190904 0.51330709 0.86417741 nan
2.3186121 0.50863302 0.86420548 nan
2.3181343 0.50395906 0.86423355 nan
2.3360262 0.50124878 0.86353528 nan
2.3488092 0.49793541 0.86303914 nan
2.3299627 0.49130708 0.86379349 nan
2.3172426 0.48536664 0.8643055 nan
2.3341007 0.48241913 0.86364841 nan
2.3336191 0.47771168 0.86367667 nan
2.333138 0.47300428 0.86370492 nan
2.3326564 0.46829689 0.86373323 nan
2.3117943 0.46170464 0.86456674 nan
2.312336 0.45712665 0.86455458 -3.3161955e+38
2.3118582 0.45245454 0.8645826 nan
2.3297129 0.44937855 0.86388654 nan
2.3465419 0.4461489 0.86323112 nan
2.3460574 0.44141179 0.86325955 nan
2.328269 0.43526185 0.86397135 nan
2.3277879 0.43055633 0.86399961 nan
2.3089914 0.42442167 0.86475104 nan
2.3074965 0.41967207 0.86481923 nan
2.31007 0.41522875 0.86472684 nan
2.311626 0.41070059 0.86467463 nan
2.309114 0.40587705 0.86478305 nan
2.3086357 0.40120119 0.86481106 nan
2.3864183 0.40178102 0.86175102 nan
2.3859258 0.39696226 0.86177999 nan
2.4250565 0.39466065 0.8602457 nan
2.4448724 0.39102322 0.85947359 nan
2.4433527 0.3860341 0.8595432 nan
2.4469109 0.38134348 0.85941267 nan
2.4464064 0.37640965 0.85944229 nan
2.4256005 0.37037054 0.86027247 nan
2.4250998 0.36547381 0.86030185 nan
2.4428635 0.36150491 0.85961121 nan
2.4362721 0.3562766 0.85988081 nan
2.4154835 0.35040084 0.86071002 nan
2.4170127 0.34561092 0.86065942 nan
2.396235 0.33984283 0.86148798 nan
2.3916841 0.33482528 0.86167681 nan
2.4094324 0.3307116 0.86098707 nan
2.4089341 0.32583714 0.86101633 nan
2.4307251 0.32177007 0.86016744 nan
2.4322481 0.31692445 0.8601172 nan
2.4347835 0.31210443 0.86002702 nan
2.4322548 0.30711755 0.86013633 nan
2.4317513 0.30219668 0.86016589 nan
2.4312482 0.29727581 0.86019546 nan
2.4115171 0.29186922 0.86098224 nan
2.4110179 0.28698361 0.86101156 nan
2.4317622 0.28255689 0.86020452 nan
2.4302473 0.27761227 0.8602739 nan
2.4297438 0.27268952 0.86030352 nan
2.4292402 0.2677668 0.86033309 nan
2.4287372 0.26284406 0.86036265 nan
2.4282336 0.25792134 0.86039221 nan
2.4277301 0.25299862 0.86042178 nan
2.4292474 0.24809361 0.86037183 nan
2.4115715 0.24304813 0.86107695 nan
2.390873 0.23805034 0.86190093 nan
2.3903761 0.23319256 0.86193007 nan
2.3918986 0.22833768 0.86187983 nan
2.4474263 -0.33420277 0.86081302 nan
2.4459195 -0.33906567 0.86088187 nan
2.4187231 -0.33850843 0.86195028 -3.2884554e+38
2.3935127 -0.33827138 0.86294132 nan
2.3930044 -0.34324235 0.86297119 nan
2.3836083 -0.34628832 0.8633467 nan
2.384089 -0.35145831 0.86333805 nan
2.3717365 -0.35380328 0.86382854 nan
2.3682714 -0.35807872 0.86397326 nan
2.3786216 -0.36544156 0.86358082 nan
2.3869948 -0.37239885 0.8632654 nan
2.3904324 -0.37826431 0.86314189 nan
2.388938 -0.38301033 0.86321008 nan
2.4091353 -0.39278489 0.86243516 nan
2.4086232 -0.39779484 0.86246526 nan
2.4081106 -0.40280485 0.86249536 nan
2.4075985 -0.4078148 0.86252546 nan
2.4287615 -0.41802049 0.86171347 nan
2.3898277 -0.41378838 0.86323619 nan
2.3873491 -0.41828704 0.86334258 nan
2.3888097 -0.42374521 0.86329597 nan
2.386332 -0.42823642 0.86340231 nan
2.3749957 -0.43051124 0.86385262 nan
2.3744893 -0.43546557 0.86388242 nan
2.3739824 -0.44041979 0.86391217 nan
2.3764272 -0.44612718 0.86382735 nan
2.3759203 -0.451087 0.86385715 nan
2.3970466 -0.46165097 0.86304736 nan
2.3975182 -0.46690822 0.86303914 nan
2.3970065 -0.47191072 0.86306918 nan
2.3984609 -0.47743386 0.86302304 nan
2.3979487 -0.48244011 0.86305308 nan
2.3915424 -0.48586237 0.86331189 nan
2.3694229 -0.48500842 0.86417997 nan
2.3718629 -0.49076587 0.86409545 nan
2.3752828 -0.49680406 0.86397302 nan
2.3728113 -0.50122845 0.86407894 nan
2.3723035 -0.50619203 0.86410874 nan
2.3678713 -0.51005501 0.86429071 nan
2.347743 -0.50947106 0.86508119 nan
2.3452787 -0.51383239 0.86518675 nan
2.3290849 -0.51425624 0.86582446 nan
2.3247552 0.61530113 0.85908699 nan
2.3006988 0.60710323 0.86009204 nan
2.3002257 0.60248113 0.86011982 nan
2.3182001 0.60055745 0.85938334 nan
2.3177242 0.59590197 0.85941136 nan
2.3172479 0.5912466 0.85943925 nan
2.2973113 0.58384871 0.8602733 nan
2.2947907 0.57894361 0.86038589 nan
2.314796 0.57713962 0.85956562 nan
2.3163676 0.57276356 0.85950875 nan
2.2933745 0.56509417 0.8604691 nan
2.2969956 0.56101787 0.86032736 nan
2.3139157 0.5586586 0.859635 nan
2.3206 0.55492258 0.8593666 nan
2.3221684 0.55051303 0.85930991 nan
2.3196454 0.54558563 0.85942268 nan
2.3191681 0.54091716 0.8594507 nan
2.3186908 0.5362488 0.85947877 nan
2.3182135 0.53158033 0.85950685 nan
2.3197794 0.5271523 0.85945028 nan
2.3172584 0.5222435 0.85956287 nan
2.316781 0.51757503 0.85959089 nan
2.3163037 0.51290667 0.85961896 nan
2.3148055 0.50812536 0.85968924 nan
2.3153491 0.50356984 0.85967505 nan
2.3352847 0.50108266 0.85885882 nan
2.3470492 0.49766374 0.85838073 nan
2.3292212 0.49114487 0.85912633 nan
2.3164997 0.48520657 0.85966063 nan
2.3343801 0.48236221 0.85892975 nan
2.3338985 0.47765476 0.85895801 nan
2.3323979 0.4728494 0.8590284 nan
2.3319168 0.46814385 0.85905671 nan
2.3130908 0.46174234 0.85984313 nan
2.310575 0.45688549 0.85995549 -3.3030083e+38
2.3100977 0.45221707 0.85998356 nan
2.3279548 0.44914436 0.85925394 nan
2.3468232 0.44609162 0.85848272 nan
2.3463387 0.44135451 0.85851115 nan
2.3478904 0.43678358 0.85845554 nan
2.3280673 0.43049943 0.85928279 nan
2.3275862 0.42579389 0.8593111 nan
2.3159132 0.42023563 0.85980165 nan
2.3235717 0.41615579 0.85949367 nan
2.3291936 0.41189861 0.85926992 nan
2.3287115 0.40718749 0.85929823 nan
2.3272138 0.40240628 0.85936844 nan
2.3867044 0.40172276 0.85692072 nan
2.3841786 0.39677119 0.85703361 nan
2.4253469 0.39460149 0.85534281 nan
2.4248466 0.38971031 0.85537219 nan
2.4416137 0.3858529 0.85468888 nan
2.4431415 0.38104808 0.85463464 nan
2.4446683 0.37623581 0.85458046 nan
2.423861 0.37020087 0.85544777 nan
2.4253907 0.36541462 0.85539347 nan
2.4218454 0.36036325 0.85554844 nan
2.4162726 0.35522372 0.85578716 nan
2.4157734 0.35034183 0.85581642 nan
2.4173026 0.34555185 0.85576212 nan
2.4168029 0.34066623 0.85579145 nan
2.4122481 0.33561167 0.85598803 nan
2.4097219 0.33065268 0.85610092 nan
2.4092236 0.32577822 0.85613024 nan
2.4310169 0.32171065 0.8552404 nan
2.4305143 0.31679535 0.85526991 nan
2.4330497 0.31197894 0.85517418 nan
2.4203949 0.30668473 0.85570467 nan
2.4198937 0.30178612 0.85573411 nan
2.4092698 0.2966136 0.85618073 nan
2.3895402 0.29124829 0.85700256 nan
2.3890448 0.28640351 0.85703164 nan
2.4108081 0.28203893 0.85614365 nan
2.4305391 0.27755275 0.85533941 nan
2.4300356 0.27263001 0.85536897 nan
2.4295325 0.26770729 0.85539854 nan
2.429029 0.26278454 0.8554281 nan
2.4285254 0.25786182 0.85545766 nan
2.4280224 0.25293911 0.85548723 nan
2.4295397 0.24803403 0.85543358 nan
2.4138827 0.24300289 0.85608721 nan
2.3931813 0.23800188 0.85694838 nan
2.392684 0.23314038 0.85697758 nan
2.4143991 0.22830993 0.85609233 nan
2.413898 0.22340763 0.85612178 nan
2.4487157 -0.33446866 0.85569119 nan
2.4422669 -0.33830094 0.85596359 nan
2.4180326 -0.33836079 0.85696131 -3.2750086e+38
2.4135675 -0.3425355 0.85715258 nan
2.3913236 -0.34287828 0.85806888 nan
2.3868651 -0.34698999 0.8582598 nan
2.3843832 -0.35151827 0.85837013 nan
2.366106 -0.35255712 0.85912436 nan
2.3665895 -0.35769933 0.85911369 nan
2.3700333 -0.3635093 0.85898238 nan
2.3764358 -0.37000364 0.85873049 nan
2.3818493 -0.37629896 0.85851896 nan
2.38726 -0.38261652 0.8583076 nan
2.3867521 -0.38758385 0.8583374 nan
2.4059625 -0.39716357 0.85756385 -3.3805073e+38
2.4064364 -0.40240037 0.85755372 nan
2.4059248 -0.40740669 0.85758382 nan
2.4270906 -0.4176091 0.85673082 nan
2.3851976 -0.41265833 0.85844648 nan
2.3827195 -0.4171477 0.85855657 nan
2.3831964 -0.42235482 0.85854626 nan
2.3964729 -0.43073273 0.85801482 nan
2.3752899 -0.4305712 0.85888654 nan
2.374783 -0.43552542 0.85891628 nan
2.3732924 -0.44023055 0.85898608 nan
2.3757377 -0.44593608 0.85889572 nan
2.3752308 -0.45089406 0.85892546 nan
2.3963594 -0.4614566 0.85807467 nan
2.3761835 -0.46132326 0.85890502 nan
2.3756762 -0.46628499 0.85893482 nan
2.3987579 -0.47749436 0.85800481 nan
2.3982458 -0.48250067 0.85803485 nan
2.3888917 -0.48513067 0.85842466 nan
2.3883815 -0.49012023 0.85845464 nan
2.3721571 -0.49082583 0.85912383 nan
2.3696856 -0.49524647 0.8592335 nan
2.3701611 -0.5004741 0.85922331 nan
2.3696542 -0.50543213 0.85925311 nan
2.3671842 -0.50983977 0.85936272 nan
2.3686399 -0.51534808 0.85931265 nan
2.3661709 -0.51974833 0.85942221 nan
2.3499713 -0.52021074 0.8600899 nan
2.3060207 0.61692059 0.85522604 nan
2.3250322 0.61524475 0.85441118 nan
2.3019981 0.60720086 0.85541463 nan
2.3015251 0.60257697 0.8554424 nan
2.3205266 0.60080087 0.85462821 nan
2.3180003 0.5958457 0.85474479 nan
2.3175244 0.59119034 0.85477269 nan
2.3006582 0.58422583 0.85550928 nan
2.2950644 0.57888782 0.85575843 nan
2.3150721 0.57708341 0.8549009 nan
2.3166437 0.57270724 0.8548404 nan
2.3130965 0.56763929 0.85500103 nan
2.3146682 0.56325769 0.85494053 nan
2.318285 0.5591349 0.85479158 nan
2.3372459 0.5569672 0.85397971 nan
2.3367658 0.5522691 0.8540079 nan
2.3127637 0.54463601 0.85505235 nan
2.3122878 0.53998053 0.85508037 nan
2.3189678 0.5361923 0.85479915 nan
2.3184905 0.53152394 0.85482723 nan
2.3180127 0.52685547 0.85485524 nan
2.3175354 0.52218699 0.85488331 nan
2.3150153 0.5172857 0.8549996 nan
2.3124957 0.51239169 0.85511577 nan
2.3120189 0.50773072 0.85514379 nan
2.3156261 0.50351334 0.85499549 nan
2.3171902 0.49906296 0.85493541 nan
2.349371 0.49782103 0.85355347 nan
2.3335814 0.49150944 0.85424262 nan
2.3300395 0.48649532 0.85440302 nan
2.3346591 0.48230529 0.85421109 nan
2.334178 0.47759783 0.85423934 nan
2.3326769 0.47279254 0.85431165 nan
2.3321958 0.46808699 0.8543399 nan
2.3327336 0.46347564 0.85432422 nan
2.3312335 0.45867583 0.85439646 -3.3163017e+38
2.3287148 0.45378932 0.85451263 nan
2.3282337 0.4490875 0.85454088 nan
2.3277531 0.44438562 0.85456914 nan
2.3211622 0.43917432 0.8548609 nan
2.3155918 0.43406832 0.85510874 nan
2.3120599 0.42914328 0.85526848 nan
2.3288827 0.42581636 0.85455042 nan
2.3243313 0.42079896 0.85475421 nan
2.3289375 0.41647714 0.85456312 nan
2.3396449 0.41257945 0.85410893 nan
2.3472972 0.40842515 0.85378653 nan
2.3468118 0.40368062 0.85381508 nan
2.3636088 0.40009567 0.85309851 nan
2.3610873 0.39518687 0.8532148 nan
2.3849883 0.39196247 0.8521921 nan
2.425137 0.38965118 0.85046935 nan
2.4205732 0.38451692 0.85067385 nan
2.4414024 0.38087064 0.84978396 nan
2.4429297 0.3760621 0.84972602 nan
2.4221206 0.3700313 0.85063058 nan
2.419591 0.36503521 0.85074747 nan
2.4170613 0.3600466 0.85086429 nan
2.4165621 0.35516468 0.85089362 nan
2.4160628 0.35028279 0.85092294 nan
2.4155636 0.34540093 0.85095227 nan
2.4150648 0.34051901 0.85098159 nan
2.4125376 0.33555272 0.85109818 nan
2.4100113 0.33059376 0.85121483 nan
2.4095125 0.3257193 0.85124409 nan
2.4292817 0.32157791 0.85040063 nan
2.4287796 0.31666631 0.85043013 nan
2.428277 0.3117547 0.85045964 nan
2.4257493 0.30678096 0.85057634 nan
2.4110708 0.30146384 0.8512162 nan
2.4044971 0.29641774 0.85150695 nan
2.3888159 0.29116419 0.85218978 nan
2.3903446 0.28636864 0.85213172 nan
2.411098 0.28197986 0.85124636 nan
2.4308314 0.27749324 0.85040492 nan
2.4303279 0.27257049 0.85043454 nan
2.4298244 0.26764777 0.85046411 nan
2.4293213 0.26272503 0.85049367 nan
2.4288177 0.25780231 0.85052323 nan
2.4283142 0.25287959 0.8505528 nan
2.429832 0.24797449 0.85049546 nan
2.4141736 0.24294367 0.85117686 nan
2.4116521 0.2380349 0.85129321 nan
2.4111514 0.23314002 0.85132265 nan
2.41469 0.22825068 0.85117835 nan
2.4141889 0.22334838 0.85120779 nan
2.408958 -0.33134067 0.85232538 nan
2.4133887 -0.33737952 0.8521446 -3.3016453e+38
2.4099126 -0.34175515 0.85230112 nan
2.4094014 -0.34675586 0.85233116 nan
2.4009876 -0.35004503 0.85269821 nan
2.3817143 -0.35093081 0.8535285 nan
2.3663979 -0.35261667 0.85418987 nan
2.3658948 -0.35753936 0.85421944 nan
2.3673649 -0.36290479 0.85416484 nan
2.3678484 -0.36805451 0.85415238 nan
2.3673444 -0.3729828 0.854182 nan
2.3678269 -0.37813807 0.85416955 nan
2.3742261 -0.38466966 0.85390484 nan
2.3747067 -0.38984346 0.85389256 -3.3271808e+38
2.3939176 -0.39943844 0.85308176 -3.3538613e+38
2.4042506 -0.40699852 0.85264963 nan
2.4224629 -0.41648912 0.85188168 nan
2.383522 -0.41224229 0.85354942 nan
2.3869548 -0.41816735 0.85341144 nan
2.3903856 -0.42410731 0.85327339 nan
2.3948002 -0.43030584 0.8530935 nan
2.3952742 -0.4355408 0.85308152 nan
2.3947639 -0.44053227 0.85311151 nan
2.3932695 -0.44527447 0.85318345 nan
2.374064 -0.44549388 0.85400969 nan
2.375525 -0.45095396 0.85395563 nan
2.3956728 -0.46126229 0.85310584 nan
2.3745112 -0.46087003 0.85401523 nan
2.3740039 -0.46582806 0.85404497 nan
2.369565 -0.46974462 0.85424215 nan
2.387732 -0.47967696 0.85347688 nan
2.3862395 -0.48439884 0.85354871 nan
2.3886771 -0.49018055 0.85345316 nan
2.3724513 -0.49088579 0.85415208 nan
2.371944 -0.49584568 0.85418189 nan
2.369473 -0.5002625 0.85429525 nan
2.3679848 -0.5049454 0.85436678 nan
2.372385 -0.51127559 0.85418773 nan
2.372859 -0.51651627 0.85417581 nan
2.3694081 -0.52064496 0.8543309 nan
2.3669391 -0.52504325 0.85444409 nan
2.3062959 0.61686456 0.85058552 nan
2.3253088 0.61518836 0.84973532 nan
2.3022723 0.60714495 0.85077977 nan
2.3017998 0.60252106 0.85080755 nan
2.3208032 0.60074461 0.84995794 nan
2.3203263 0.59608543 0.84998596 nan
2.31985 0.59142625 0.85001391 nan
2.3029819 0.58445847 0.85078019 nan
2.2994356 0.57940173 0.85094643 nan
2.3184209 0.57744884 0.85009789 nan
2.3179445 0.57278967 0.85012585 nan
2.3154202 0.56785679 0.85024601 nan
2.3128972 0.56293136 0.85036618 nan
2.316515 0.55881226 0.85020983 nan
2.3303628 0.55599129 0.84959286 nan
2.3298836 0.55130625 0.849621 nan
2.2997441 0.54292101 0.85098439 nan
2.300293 0.53841555 0.85096622 nan
2.3069758 0.53464937 0.85067189 nan
2.3167229 0.53122342 0.85023969 nan
2.3182898 0.52679908 0.85017568 nan
2.3086162 0.52106583 0.85061765 nan
2.3030324 0.51583189 0.8508755 nan
2.2923431 0.5100435 0.851363 nan
2.2928915 0.50553232 0.85134482 nan
2.3159032 0.50345695 0.85031593 nan
2.3154259 0.49878851 0.85034394 nan
2.3476105 0.49754941 0.84890246 nan
2.3481474 0.49292693 0.84888494 nan
2.3374605 0.48716262 0.84937239 nan
2.3369789 0.48245153 0.8494007 nan
2.3538361 0.4794361 0.84864908 nan
2.3329563 0.47273567 0.84959489 nan
2.3385925 0.46860635 0.84934801 nan
2.335052 0.46360707 0.84951389 nan
2.3325319 0.45871133 0.84963381 -3.3560756e+38
2.3289938 0.45373249 0.84979957 nan
2.3285127 0.44903067 0.84982783 nan
2.328032 0.44432878 0.84985608 nan
2.3204222 0.43903273 0.85020483 nan
2.3128152 0.43376264 0.85055339 nan
2.3103013 0.42892441 0.85067302 nan
2.3271265 0.4256008 0.84992325 nan
2.3246102 0.42074212 0.85004306 nan
2.3241296 0.41604215 0.85007125 nan
2.3378906 0.41237479 0.84945941 nan
2.3628345 0.40944633 0.84834504 nan
2.3694649 0.40516427 0.84805381 nan
2.3689752 0.40037891 0.84808254 nan
2.3695025 0.3956598 0.84806561 nan
2.3913722 0.3922911 0.84708965 nan
2.3908787 0.38746303 0.84711874 nan
2.4279747 0.3848832 0.84545892 nan
2.4213796 0.37963298 0.84576213 nan
2.4208798 0.37474737 0.84579146 nan
2.4183497 0.36975139 0.8459121 nan
2.4178505 0.36486948 0.84594142 nan
2.4173512 0.35998759 0.84597075 nan
2.416852 0.35510567 0.84600008 nan
2.4163527 0.35022378 0.84602934 nan
2.4158535 0.34534192 0.84605867 nan
2.4153543 0.34046 0.84608799 nan
2.412827 0.33549374 0.84620839 nan
2.4103003 0.33053485 0.84632874 nan
2.409802 0.32566038 0.846358 nan
2.4295731 0.32151851 0.84547734 nan
2.4290709 0.31660691 0.84550685 nan
2.4285688 0.31169531 0.84553635 nan
2.4280663 0.30678374 0.84556586 nan
2.3951573 0.30093753 0.84704983 nan
2.3865609 0.29586652 0.84744257 nan
2.3931527 0.29120761 0.8471536 nan
2.3936687 0.28638098 0.84713727 nan
2.4245434 0.28220397 0.84575874 nan
2.4321351 0.27745369 0.84542507 nan
2.4306202 0.27251098 0.84550005 nan
2.4301167 0.26758826 0.84552962 nan
2.4296131 0.26266551 0.84555918 nan
2.4270878 0.25771782 0.84567946 nan
2.4265847 0.25279877 0.84570897 nan
2.4291139 0.24790615 0.84560251 nan
2.4084015 0.24284285 0.84653854 nan
2.4079018 0.23795539 0.84656787 nan
2.407402 0.23306793 0.84659719 nan
2.4079118 0.22818187 0.84658134 nan
2.4074121 0.22329256 0.84661072 nan
2.4092546 -0.33140111 0.84731644 nan
2.4117093 -0.33702326 0.8472144 -3.3014901e+38
2.4072447 -0.34118485 0.84742057 nan
2.407722 -0.34639204 0.84740651 nan
2.4072108 -0.35138905 0.84743655 nan
2.3859591 -0.35185397 0.84839016 nan
2.3874269 -0.35724723 0.84833205 nan
2.3671741 -0.35781837 0.84924102 nan
2.3656831 -0.36252165 0.84931457 nan
2.3681407 -0.36811411 0.84921229 nan
2.3676367 -0.37304235 0.84924191 nan
2.3671327 -0.3779707 0.84927154 nan
2.3784647 -0.38564467 0.84877425 nan
2.379931 -0.39105666 0.84871626 -3.300545e+38
2.3764663 -0.39531326 0.84887767 -3.3671564e+38
2.4065189 -0.40752774 0.84754741 nan
2.4247327 -0.41702247 0.84674412 nan
2.3887434 -0.41349268 0.84835291 nan
2.3961167 -0.42038703 0.84803212 nan
2.3946209 -0.42513478 0.84810591 nan
2.3921413 -0.42963517 0.84822351 nan
2.3985243 -0.43633777 0.84794682 nan
2.3980131 -0.44133472 0.8479768 nan
2.3915968 -0.44483638 0.84826958 nan
2.3723898 -0.44505155 0.84913111 nan
2.3708997 -0.44974923 0.84920466 nan
2.3713775 -0.45495272 0.84919059 nan
2.3708711 -0.45990336 0.84922034 nan
2.3644652 -0.46330285 0.84951246 nan
2.3600278 -0.46720082 0.8497169 nan
2.3605061 -0.47239506 0.84970284 nan
2.3639326 -0.47838527 0.84955776 nan
2.3909383 -0.49077266 0.84836435 nan
2.3747101 -0.4914813 0.84909308 nan
2.3742023 -0.49644494 0.84912288 nan
2.3736949 -0.50140846 0.84915268 nan
2.3731875 -0.50637209 0.84918249 nan
2.3766065 -0.51243651 0.84903783 nan
2.3760982 -0.51740748 0.84906769 nan
2.3736272 -0.52182055 0.84918475 nan
2.3711572 -0.52622634 0.84930176 nan
2.3229852 0.61932492 0.84517568 nan
2.3225088 0.61466575 0.8452037 nan
2.302547 0.60708904 0.8461448 nan
2.30515 0.60292029 0.84602845 nan
2.3231297 0.60098797 0.84519154 nan
2.3206029 0.59602916 0.84531564 nan
2.3201265 0.59136999 0.84534365 nan
2.305306 0.58469105 0.84604371 nan
2.302783 0.57977295 0.8461675 nan
2.3248425 0.57823592 0.84513968 nan
2.3223166 0.57328814 0.84526366 nan
2.3177443 0.56807423 0.84548354 nan
2.2978187 0.56085026 0.84642255 nan
2.3147445 0.55848968 0.84563541 nan
2.3214312 0.55475318 0.84532785 nan
2.3209538 0.55008471 0.84535593 nan
2.3174081 0.54503363 0.84552765 nan
2.2995453 0.5382337 0.84636986 nan
2.2980494 0.5334785 0.84644556 nan
2.3169999 0.53116703 0.84556383 nan
2.3185668 0.52674258 0.84549612 nan
2.2864099 0.5184074 0.84700751 nan
2.2818513 0.51333082 0.84722656 nan
2.2926173 0.50998759 0.84672809 nan
2.2931662 0.50547642 0.84670806 nan
2.3161802 0.50340044 0.84563637 nan
2.3177447 0.49895 0.84556878 nan
2.3336 0.49599221 0.84483236 nan
2.3351603 0.491501 0.84476501 nan
2.3571281 0.48907098 0.84374261 nan
2.3586831 0.4845278 0.84367555 nan
2.3541174 0.47937876 0.84389508 nan
2.3332353 0.47267875 0.84487808 nan
2.3388724 0.46854931 0.84462005 nan
2.3353314 0.46355012 0.84479153 nan
2.3328114 0.4586544 0.84491515 -3.342836e+38
2.3292727 0.45367566 0.84508651 nan
2.3287921 0.44897383 0.84511477 nan
2.3497038 0.44609326 0.84414214 nan
2.3207006 0.43897605 0.84550476 nan
2.3141112 0.4337891 0.84581876 nan
2.3299232 0.43040994 0.84508485 nan
2.3274059 0.42554393 0.84520835 nan
2.3289604 0.42099512 0.84514141 nan
2.345778 0.41757271 0.84436059 nan
2.3595366 0.41386607 0.84372294 nan
2.3641348 0.40946051 0.84351361 nan
2.3717828 0.40524644 0.84316194 nan
2.3712931 0.40045735 0.84319067 nan
2.3708034 0.39566827 0.84321946 nan
2.3916588 0.39223275 0.84225011 nan
2.3911653 0.38740468 0.84227908 nan
2.4069281 0.38354841 0.84154809 nan
2.4237008 0.37969169 0.84076989 nan
2.4221854 0.37474534 0.84084672 nan
2.4186392 0.36969239 0.8410185 nan
2.4181399 0.36481047 0.84104782 nan
2.4156103 0.35982567 0.84117204 nan
2.4151115 0.35494751 0.84120131 nan
2.4146128 0.35006931 0.84123063 nan
2.414114 0.34519115 0.84125996 nan
2.4136152 0.34031293 0.84128922 nan
2.4151449 0.33551911 0.84122372 nan
2.3903103 0.32966945 0.84239024 nan
2.3898158 0.32483208 0.84241933 nan
2.4298644 0.32145914 0.840554 nan
2.4090943 0.31585249 0.84153044 nan
2.4116354 0.3110767 0.84141773 nan
2.4111366 0.30619666 0.84144706 nan
2.4086118 0.3012583 0.84157103 nan
2.3908982 0.29591733 0.84240443 nan
2.3944526 0.2911745 0.84224439 nan
2.394969 0.2863459 0.84222627 nan
2.4309068 0.2822752 0.84055364 nan
2.4324274 0.27739415 0.84048873 nan
2.4319239 0.27246955 0.8405183 nan
2.4314203 0.26754498 0.84054786 nan
2.428894 0.26259169 0.8406719 nan
2.4253578 0.25763339 0.84084308 nan
2.4258661 0.25272867 0.84082544 nan
2.4324384 0.24787289 0.84052467 nan
2.4319344 0.24294272 0.8405543 nan
2.4061708 0.23788625 0.84176308 nan
2.4056716 0.23300251 0.8417924 nan
2.4061823 0.22812006 0.84177464 nan
2.407702 0.22323343 0.84170973 nan
2.4095511 -0.33146155 0.84230757 nan
2.4090405 -0.33645856 0.84233761 -3.2482701e+38
2.4035873 -0.34040415 0.84259701 nan
2.4119711 -0.34730101 0.84221417 nan
2.412447 -0.35251939 0.84219837 nan
2.3882289 -0.35234553 0.84332871 nan
2.3896966 -0.35774267 0.84326679 nan
2.3704286 -0.3585366 0.84416723 nan
2.36795 -0.36302388 0.84428847 nan
2.368433 -0.36817366 0.84427226 nan
2.367929 -0.37310195 0.84430182 nan
2.3674254 -0.37803024 0.8443315 nan
2.3777719 -0.38547564 0.84385765 nan
2.3772659 -0.39042437 0.84388733 nan
2.3757739 -0.39514065 0.84396291 nan
2.3801975 -0.40125948 0.84376389 nan
2.4191179 -0.41566586 0.84196484 nan
2.3890386 -0.41355288 0.84336632 nan
2.3964124 -0.42044735 0.84303069 nan
2.3939319 -0.42495322 0.84315199 nan
2.3875127 -0.42847699 0.84345597 nan
2.3791261 -0.43148744 0.84385121 nan
2.3786192 -0.43644726 0.84388101 nan
2.3731899 -0.44016087 0.84413904 nan
2.3520164 -0.43983823 0.84512699 nan
2.3505301 -0.44449687 0.84520209 nan
2.3539634 -0.45042586 0.84504914 nan
2.3534603 -0.45534301 0.84507871 nan
2.3559079 -0.46103579 0.84497148 nan
2.3534379 -0.46543777 0.84509218 nan
2.3539176 -0.47061902 0.84507614 nan
2.3593116 -0.47712445 0.84483242 nan
2.3981133 -0.49269474 0.84304035 nan
2.3808994 -0.49314821 0.84384447 nan
2.3715506 -0.49569595 0.844284 nan
2.3661327 -0.49929631 0.84454131 nan
2.3695545 -0.50533855 0.84438908 nan
2.3975167 -0.51827657 0.84309977 nan
2.3989677 -0.52384079 0.84303892 nan
2.3974733 -0.52857548 0.8431145 nan
2.3920555 -0.53218329 0.84337187 nan
2.3232617 0.61926854 0.84050542 nan
2.3227854 0.61460936 0.84053344 nan
2.3028212 0.60703313 0.84150994 nan
2.3033738 0.602561 0.84148782 nan
2.3049517 0.59823477 0.84141576 nan
2.3014026 0.59316158 0.84159327 nan
2.3204031 0.5913136 0.84067339 nan
2.3178773 0.58636594 0.84080106 nan
2.315352 0.58142579 0.84092873 nan
2.3353629 0.57958484 0.83995974 nan
2.331811 0.57447994 0.84013742 nan
2.3282604 0.56938612 0.84031504 nan
2.3134494 0.56281888 0.84104055 nan
2.3150206 0.55843341 0.84096885 nan
2.3217082 0.5546968 0.84064829 nan
2.3212309 0.55002832 0.84067631 nan
2.3207536 0.54535985 0.84070438 nan
2.316185 0.54018867 0.84093148 nan
2.313663 0.53527999 0.84105891 nan
2.3009181 0.52915907 0.84168369 nan
2.304533 0.52500451 0.84151268 nan
2.2795291 0.51752377 0.84273356 nan
2.2790589 0.51292592 0.84276116 nan
2.3031087 0.51107723 0.84159631 nan
2.3097844 0.50722361 0.84127647 nan
2.3164573 0.50334406 0.84095675 nan
2.3159795 0.49867561 0.84098482 nan
2.333879 0.49593541 0.8401193 nan
2.3293152 0.49081245 0.84034604 nan
2.35741 0.48901358 0.83898485 nan
2.3610058 0.48467344 0.83881491 nan
2.3594999 0.4798198 0.83889306 nan
2.3375945 0.47301328 0.83996296 nan
2.3371124 0.46830022 0.83999127 nan
2.3356109 0.46349317 0.84006912 nan
2.3351293 0.45878202 0.84009743 -3.3161452e+38
2.3315902 0.45379966 0.84027439 nan
2.331109 0.44909412 0.84030265 nan
2.3316464 0.44447529 0.84028137 nan
2.3209786 0.43891937 0.8408047 nan
2.3184624 0.43406451 0.84093195 nan
2.3312206 0.43043414 0.84031671 nan
2.3521185 0.4273898 0.839306 nan
2.3536687 0.42279637 0.8392356 nan
2.3531828 0.41804442 0.83926415 nan
2.367959 0.41439819 0.83855104 nan
2.370522 0.40983391 0.83843142 nan
2.372067 0.40518856 0.83836138 nan
2.3715773 0.40039948 0.83839011 nan
2.3924389 0.3970024 0.83738154 nan
2.3919454 0.39217436 0.83741057 nan
2.3894191 0.38722113 0.83753824 nan
2.3848605 0.3821539 0.83776474 nan
2.4219594 0.37951487 0.8359676 nan
2.420444 0.37457231 0.83604628 nan
2.4168978 0.36952308 0.8362236 nan
2.416399 0.36464489 0.83625293 nan
2.4362044 0.36079544 0.83529603 nan
2.4357018 0.35588014 0.8353256 nan
2.4351993 0.35096481 0.83535504 nan
2.4346967 0.34604952 0.83538461 nan
2.4118757 0.34016594 0.83649796 nan
2.4144201 0.3354179 0.83637947 nan
2.3926258 0.32969159 0.83744287 nan
2.3921304 0.32485053 0.83747196 nan
2.4342108 0.32154614 0.83543384 nan
2.4134378 0.31593248 0.83644754 nan
2.4139519 0.3110835 0.83642763 nan
2.4164915 0.3062928 0.83630943 nan
2.414979 0.30137429 0.83638799 nan
2.3972626 0.29602259 0.83725309 nan
2.3947406 0.29111582 0.83738059 nan
2.4003186 0.28640515 0.83711487 nan
2.4342356 0.28228095 0.83547366 nan
2.4357557 0.27739424 0.83540505 nan
2.4322162 0.27241001 0.83558196 nan
2.4317126 0.26748544 0.83561152 nan
2.4312091 0.26256081 0.83564109 nan
2.4266605 0.25758639 0.83586705 nan
2.426158 0.25266922 0.83589655 nan
2.4064488 0.24758592 0.83685809 nan
2.4059496 0.24270403 0.83688742 nan
2.403429 0.23781213 0.83701479 nan
2.4019203 0.23293075 0.83709311 nan
2.417583 0.22807547 0.83633828 nan
2.423141 0.22316623 0.83607376 nan
2.4118257 -0.33193517 0.83720315 nan
2.4103255 -0.33672738 0.83728099 -3.2482685e+38
2.4078374 -0.34130561 0.83740646 nan
2.4162207 -0.3482101 0.83700693 nan
2.4166965 -0.35343593 0.83698928 nan
2.3954382 -0.35391653 0.83802116 nan
2.3969049 -0.35932672 0.83795571 nan
2.3963957 -0.36430514 0.83798558 nan
2.3899632 -0.36795497 0.83830154 nan
2.3687258 -0.3682332 0.83933222 nan
2.3682218 -0.37316155 0.83936179 nan
2.3677177 -0.37808979 0.83939141 nan
2.3741198 -0.38462013 0.83908761 nan
2.3746004 -0.38979208 0.83906966 nan
2.3671918 -0.3931073 0.8394326 nan
2.3726039 -0.39944398 0.83917665 nan
2.4105444 -0.41360021 0.83735073 nan
2.387363 -0.41313672 0.83847493 nan
2.392767 -0.41954768 0.8382194 nan
2.3922572 -0.42452979 0.83824933 nan
2.385838 -0.42804968 0.83856452 nan
2.3804054 -0.43179297 0.83883196 nan
2.3798981 -0.43675464 0.83886176 nan
2.3764372 -0.44096851 0.83903408 nan
2.3542767 -0.44039983 0.84010863 nan
2.3478689 -0.44379729 0.84042305 nan
2.353271 -0.45023048 0.84016776 nan
2.3547359 -0.45565915 0.84010231 nan
2.3571835 -0.46135384 0.83998954 nan
2.3606129 -0.46732008 0.83982933 nan
2.3620749 -0.47277665 0.83976418 nan
2.3655019 -0.47876883 0.83960414 nan
2.4003758 -0.49328721 0.83792734 nan
2.4037938 -0.49936855 0.83776784 nan
2.4013162 -0.50384665 0.83789277 nan
2.398839 -0.50831711 0.83801764 nan
2.4012728 -0.51414734 0.83790565 nan
2.3978143 -0.51833713 0.83807784 nan
2.4090815 -0.52667248 0.83753991 nan
2.4075851 -0.53142577 0.8376174 nan
2.3992209 -0.53420955 0.83802617 nan
2.3245645 0.61936945 0.83578336 nan
2.3240876 0.61470842 0.83581132 nan
2.3030958 0.60697722 0.83687502 nan
2.3036485 0.60250509 0.836851 nan
2.3031754 0.59787935 0.83687878 nan
2.3016772 0.59310567 0.83695835 nan
2.3217044 0.59140337 0.83595133 nan
2.321228 0.58674234 0.83597934 nan
2.3217759 0.58222371 0.83595562 nan
2.3223233 0.57770145 0.8359319 nan
2.3392587 0.57539392 0.83508122 nan
2.3357062 0.57028723 0.83526438 nan
2.315773 0.56303263 0.83627433 nan
2.3173447 0.55864322 0.83619899 nan
2.3219852 0.55464041 0.83596873 nan
2.3194613 0.54971313 0.83610004 nan
2.3189845 0.54504848 0.83612806 nan
2.3164616 0.54013234 0.83625931 nan
2.3159852 0.53547132 0.83628732 nan
2.320621 0.53142011 0.83605731 nan
2.3232107 0.5271101 0.83593065 nan
2.2992229 0.51971483 0.83714485 nan
2.298749 0.51508152 0.83717269 nan
2.2962317 0.51021934 0.83730364 nan
2.2957582 0.50558996 0.83733141 nan
2.3146915 0.50306594 0.83638024 nan
2.3142142 0.49840125 0.83640826 nan
2.3300738 0.49545011 0.83561218 nan
2.3193855 0.48970324 0.83615535 nan
2.3495264 0.48812914 0.83463895 nan
2.3602676 0.48451439 0.8341012 nan
2.3577409 0.47956312 0.83423269 nan
2.3562355 0.47471711 0.83431268 nan
2.3363724 0.46814731 0.83531851 nan
2.3358903 0.46343622 0.83534676 nan
2.3354087 0.45872506 0.83537507 -3.2628207e+38
2.3328886 0.45383319 0.8355062 nan
2.332407 0.44912577 0.83553445 nan
2.3319259 0.44441837 0.83556271 nan
2.3263507 0.4392868 0.83584785 nan
2.32587 0.43458867 0.83587605 nan
2.3131695 0.42891717 0.83652043 nan
2.3656363 0.42836276 0.83387905 nan
2.3671842 0.42374519 0.83380508 nan
2.3687315 0.41912019 0.83373111 nan
2.3702779 0.41448775 0.83365726 nan
2.3728409 0.40991971 0.83353209 nan
2.3723512 0.40513065 0.83356082 nan
2.3932195 0.40177214 0.83251297 nan
2.3917089 0.3968778 0.8325932 nan
2.3901987 0.39198714 0.83267343 nan
2.3876724 0.38703769 0.83280492 nan
2.3820977 0.38191357 0.83309001 nan
2.4181848 0.37922046 0.83127522 nan
2.4369879 0.37542498 0.83033162 nan
2.4354701 0.37045634 0.83041233 nan
2.4369988 0.36565134 0.83033943 nan
2.4364963 0.36073601 0.830369 nan
2.4359937 0.35582072 0.83039856 nan
2.4354911 0.35090539 0.830428 nan
2.4349885 0.34599009 0.83045757 nan
2.4121652 0.34010702 0.83161187 nan
2.41471 0.33535892 0.83148783 nan
2.3949413 0.32971358 0.83248806 nan
2.3944459 0.32486883 0.83251715 nan
2.4345026 0.32148668 0.83050311 nan
2.4339995 0.31656766 0.83053261 nan
2.4345098 0.31168148 0.83051109 nan
2.4360332 0.30682263 0.83043855 nan
2.436543 0.30192715 0.83041704 nan
2.4178076 0.29650956 0.83136511 nan
2.3950286 0.29105717 0.83251679 nan
2.4117446 0.28660566 0.83167893 nan
2.4416137 0.28237337 0.8301785 nan
2.4390845 0.27739421 0.83031017 nan
2.4335203 0.27236849 0.83059466 nan
2.4330163 0.26744205 0.83062422 nan
2.4304895 0.26248696 0.83075571 nan
2.4269524 0.25752693 0.8309381 nan
2.424427 0.25258866 0.83106947 nan
2.4037056 0.24750078 0.83211726 nan
2.406239 0.24264503 0.83199382 nan
2.4057398 0.23776314 0.83202314 nan
2.405241 0.23288122 0.83205247 nan
2.4047418 0.22799933 0.83208179 nan
2.4214125 0.22310793 0.83124655 nan
2.4209099 0.21819448 0.83127606 nan
2.4121222 -0.33199561 0.83219051 nan
2.4096332 -0.33657932 0.8323198 -3.1819105e+38
2.4526191 -0.35083008 0.83016753 nan
2.4362855 -0.35251403 0.83099139 nan
2.4169941 -0.35349655 0.83196366 nan
2.4184575 -0.35894197 0.83189464 nan
2.3972006 -0.35938686 0.83296537 nan
2.3966913 -0.36436528 0.8329953 nan
2.3882828 -0.36757207 0.83342141 nan
2.3670435 -0.36784613 0.83449113 nan
2.3645658 -0.37232041 0.83461976 nan
2.3660364 -0.37769532 0.83455032 nan
2.3694797 -0.3835355 0.83438194 nan
2.3689752 -0.38846743 0.83441156 nan
2.3655119 -0.39270169 0.8345896 nan
2.3709245 -0.39903486 0.83432245 nan
2.4088697 -0.41318822 0.83242393 nan
2.3856864 -0.4127205 0.83359092 nan
2.3930626 -0.41960788 0.83322543 nan
2.3945236 -0.42507374 0.83315647 nan
2.3890882 -0.42884099 0.83343345 nan
2.3806996 -0.43185294 0.83385837 nan
2.3801923 -0.43681467 0.83388817 nan
2.3767309 -0.44102848 0.83406609 nan
2.3772087 -0.44623578 0.83404654 nan
2.3540654 -0.44537461 0.83521116 nan
2.3574986 -0.45130932 0.83504337 nan
2.3569951 -0.45623207 0.83507299 nan
2.356492 -0.46115482 0.83510256 nan
2.3638558 -0.46816099 0.83473772 nan
2.3663011 -0.47388542 0.83461952 nan
2.3697276 -0.47988522 0.83445209 nan
2.3819985 -0.48829377 0.83384144 nan
2.3834553 -0.49380422 0.83377284 nan
2.404561 -0.50471634 0.83271939 nan
2.404048 -0.50973558 0.83274955 nan
2.4035344 -0.51475483 0.83277971 nan
2.404985 -0.52032471 0.83271146 nan
2.4133067 -0.52784193 0.83229887 nan
2.433404 -0.5387404 0.83129621 nan
2.324841 0.61931306 0.83111119 nan
2.3243642 0.61465204 0.83113921 nan
2.3043957 0.60707486 0.83218646 nan
2.3070002 0.60290402 0.83205336 nan
2.3044753 0.59797323 0.83218837 nan
2.3019514 0.59304976 0.83232343 nan
2.3025036 0.58857191 0.83229762 nan
2.3020306 0.58394617 0.8323254 nan
2.3220525 0.58216739 0.8312816 nan
2.3226004 0.57764506 0.83125609 nan
2.3221231 0.57298028 0.83128411 nan
2.3359847 0.57023048 0.83056247 nan
2.3180976 0.56324613 0.83150077 nan
2.3370728 0.56111515 0.83051181 nan
2.3406873 0.55694556 0.83032596 nan
2.3402066 0.55224383 0.83035421 nan
2.3264241 0.54588443 0.83107781 nan
2.3259454 0.54120672 0.83110589 nan
2.3183074 0.53566265 0.83150828 nan
2.323966 0.53172946 0.83121556 nan
2.3234878 0.52705359 0.83124363 nan
2.2994976 0.5196588 0.83250064 nan
2.2990241 0.51502562 0.83252847 nan
2.3159223 0.512339 0.83164835 nan
2.3154454 0.50767434 0.83167636 nan
2.3210974 0.50367433 0.83138406 nan
2.3216405 0.49910736 0.83135879 nan
2.3170776 0.49400139 0.83160037 nan
2.3125162 0.4889102 0.83184183 nan
2.3365374 0.48672813 0.83058959 nan
2.3452411 0.48293439 0.83013791 nan
2.3427176 0.47801092 0.83027291 nan
2.3473353 0.47377947 0.83003473 nan
2.3529716 0.46962544 0.82974339 nan
2.3545265 0.46507278 0.82966524 nan
2.3356881 0.45866811 0.83065271 -3.3160904e+38
2.3352065 0.45395699 0.83068103 nan
2.3347249 0.44924587 0.83070934 nan
2.3342433 0.44453472 0.83073759 nan
2.3357992 0.43999326 0.83065939 nan
2.3332796 0.43511251 0.83079422 nan
2.3236318 0.42967156 0.83130133 nan
2.3720293 0.42878044 0.82877612 nan
2.3715401 0.42399693 0.82880485 nan
2.3710508 0.41921341 0.82883358 nan
2.3705621 0.4144299 0.82886231 nan
2.3700728 0.40964639 0.82889104 nan
2.3695836 0.40486288 0.82891977 nan
2.3904543 0.40150946 0.82783276 nan
2.3889441 0.39662072 0.82791483 nan
2.3864174 0.3916713 0.82805002 nan
