# .PCD v0.7 - Point Cloud Data file format
VERSION 0.7
FIELDS x y z rgb
SIZE 4 4 4 4
TYPE F F F F
COUNT 1 1 1 1
WIDTH 1272
HEIGHT 1
VIEWPOINT 0 0 0 1 0 0 0
POINTS 1272
DATA ascii
2.3632474 0.4099645 1.0616817 nan
2.3672748 0.40671402 1.0618651 nan
2.3932214 0.41075462 1.0629066 nan
2.3972495 0.40743333 1.0630904 nan
2.4022741 0.40442538 1.0633134 nan
2.3963387 0.39780754 1.063107 nan
2.395385 0.39283508 1.0630957 nan
2.3954277 0.38818914 1.0631235 nan
2.3984597 0.38450593 1.0632684 nan
2.3985023 0.37985438 1.0632962 nan
2.398545 0.37520283 1.063324 nan
2.3955986 0.36960536 1.0632344 nan
2.3836834 0.36119837 1.0627929 nan
2.3867154 0.35750955 1.0629379 nan
2.3847649 0.35226101 1.0628873 nan
2.3848073 0.34763557 1.0629148 nan
2.3838534 0.34270424 1.0629034 nan
2.3819027 0.3374725 1.0628526 nan
2.3958976 0.33708388 1.0634289 nan
2.3959403 0.33243805 1.0634567 nan
2.3740571 0.32122511 1.0626218 nan
2.3641329 0.31365377 1.0622573 nan
2.3831117 0.31466824 1.06303 nan
2.3821576 0.3097536 1.0630183 -3.1824281e+38
2.3981473 0.30979043 1.063674 -2.7554595e+38
2.4001837 0.30571914 1.0637802 -2.7422753e+38
2.4408407 -0.20313263 1.0682967 nan
2.4428811 -0.20768908 1.0684059 nan
2.4429245 -0.21241336 1.0684341 nan
2.4619427 -0.21564937 1.0692322 nan
2.4240363 -0.22331482 1.0677204 nan
2.4300718 -0.22755606 1.0679917 nan
2.4141355 -0.23341987 1.0673709 nan
2.4261634 -0.23723963 1.0678856 nan
2.4262066 -0.2419322 1.0679137 nan
2.4322422 -0.24622196 1.0681852 nan
2.4302878 -0.25105625 1.0681322 nan
2.4153492 -0.25670737 1.0675511 nan
2.3974133 -0.26248714 1.0668478 nan
2.3794768 -0.26819974 1.0661442 nan
2.3625388 -0.27378738 1.0654808 nan
2.32762 -0.28031853 1.0640852 nan
2.3136773 -0.28558344 1.0635428 nan
2.3107216 -0.29022181 1.0634477 -2.6478777e+38
2.304769 -0.29500002 1.0632303 -2.3138775e+38
2.3058093 -0.29941648 1.0632976 -3.2746749e+38
2.3158398 -0.30341718 1.0637314 -3.1824038e+38
2.3218751 -0.30763415 1.0640025 -3.3025032e+38
2.3219163 -0.31213081 1.0640295 -3.3421722e+38
2.3209586 -0.31666851 1.0640156 nan
2.3020186 -0.32190716 1.0632681 nan
2.3050566 -0.32625464 1.0634171 nan
2.3060968 -0.33068416 1.0634845 nan
2.3061378 -0.33515096 1.0635111 -3.3957052e+38
2.3211653 -0.33914247 1.0641499 -2.9956358e+38
2.3222058 -0.34360746 1.0642176 -2.768729e+38
2.3052619 -0.34857935 1.0635505 -2.7021119e+38
2.3063021 -0.35301819 1.0636179 -2.8222117e+38
2.3223298 -0.35709745 1.0642982 -3.0223764e+38
2.3233702 -0.36157176 1.0643659 -3.2091981e+38
2.3264093 -0.36600882 1.0645154 -3.3421726e+38
2.309464 -0.37082958 1.0638474 nan
2.309505 -0.37530196 1.0638741 nan
2.3215373 -0.37959564 1.0643916 nan
2.3735404 -0.38341299 1.0665458 nan
2.3675871 -0.38807178 1.0663277 nan
2.363632 -0.39268959 1.0661914 nan
2.3976507 -0.39701012 1.0676107 nan
2.4166808 -0.40154096 1.0684166 nan
2.4097283 -0.40623891 1.0681578 nan
2.3907833 -0.41093275 1.067407 nan
2.3908257 -0.41555628 1.0674347 nan
2.3918676 -0.42018172 1.0675033 nan
2.3919101 -0.42480713 1.067531 nan
2.3889542 -0.42941564 1.0674355 nan
2.4021254 0.45099008 1.0583888 nan
2.4061534 0.44771177 1.0585649 nan
2.4061964 0.44304526 1.0585928 nan
2.4012575 0.43667179 1.0584352 nan
2.3903401 0.4282797 1.058055 nan
2.3893864 0.42330545 1.0580456 nan
2.3814576 0.41598421 1.0577763 nan
2.3854859 0.41270018 1.0579525 nan
2.3935001 0.41072959 1.0582772 nan
2.3955357 0.40674776 1.0583793 nan
2.4005609 0.40374357 1.0585929 nan
2.3956211 0.39745587 1.0584348 nan
2.3956637 0.39281005 1.0584626 nan
2.3957064 0.3881641 1.0584904 nan
2.3967459 0.38383901 1.0585554 nan
2.3967886 0.37919122 1.0585831 nan
2.3968313 0.37454337 1.0586109 nan
2.3958774 0.36958033 1.0586014 nan
2.383961 0.36117345 1.0581821 nan
2.38201 0.35592669 1.0581353 nan
2.3840458 0.35192627 1.0582374 nan
2.3840885 0.34730285 1.0582651 nan
2.3851275 0.34298521 1.0583299 nan
2.3841734 0.33805567 1.0583203 nan
2.3961763 0.33705884 1.0587958 nan
2.3962193 0.3324129 1.0588236 nan
2.37234 0.32060313 1.057955 nan
2.3664014 0.31422222 1.0577585 nan
2.3903666 0.3167066 1.0586827 nan
2.3904092 0.3120718 1.0587103 -3.2357536e+38
2.3854678 0.30598193 1.0585511 -2.9688661e+38
2.3855102 0.30135661 1.0585787 -2.9425994e+38
2.405127 -0.20152588 1.0621709 nan
2.4081659 -0.20592752 1.0623145 nan
2.4451623 -0.20755053 1.063772 nan
2.4452057 -0.21227854 1.0638002 nan
2.4472466 -0.21684994 1.0639057 nan
2.4363034 -0.22242269 1.0635086 nan
2.4413409 -0.226761 1.0637302 nan
2.4244039 -0.23271787 1.0631007 nan
2.426445 -0.23726501 1.0632061 nan
2.4314826 -0.2416126 1.0634277 nan
2.4345222 -0.24611314 1.0635719 nan
2.4345655 -0.25082064 1.0636001 nan
2.4156294 -0.25673264 1.062892 nan
2.3956938 -0.26263529 1.0621448 nan
2.3757575 -0.26846331 1.0613971 nan
2.3598163 -0.27398551 1.060804 nan
2.3478703 -0.27922425 1.0603658 -2.7254885e+38
2.3349252 -0.28447229 1.0598885 -2.9380259e+38
2.3329685 -0.28909761 1.0598378 -2.4324962e+38
2.33301 -0.2936148 1.0598649 -2.1932359e+38
2.3150687 -0.29900444 1.0591928 -2.4329677e+38
2.3181074 -0.30334821 1.0593361 -2.193396e+38
2.3201468 -0.30774796 1.0594406 -2.0470231e+38
2.320188 -0.31224087 1.0594676 -2.2862861e+38
2.3182311 -0.31681582 1.0594165 -2.3394561e+38
2.314276 -0.32146156 1.0592878 -2.3794386e+38
2.3193128 -0.32575694 1.0595092 -2.392783e+38
2.3233507 -0.33010638 1.0596917 -2.3002023e+38
2.3233919 -0.33460492 1.0597185 -2.3135988e+38
2.3224342 -0.33913511 1.0597064 -2.2735139e+38
2.3244741 -0.34357214 1.0598112 -2.2868583e+38
2.326514 -0.34801665 1.059916 -2.2338963e+38
2.325556 -0.35254687 1.059904 -2.3273071e+38
2.3265967 -0.35702491 1.0599699 -2.3138609e+38
2.3266382 -0.36152902 1.0599968 -2.2871721e+38
2.3266795 -0.36603317 1.0600237 -2.3804807e+38
2.326721 -0.37053728 1.0600506 -2.2870699e+38
2.3267624 -0.37504143 1.0600775 -2.7130396e+38
2.3098145 -0.37979856 1.0594409 -2.9532389e+38
2.3588254 -0.38363308 1.061381 nan
2.3768566 -0.38799617 1.0621114 nan
2.3948884 -0.39242643 1.0628421 nan
2.427912 -0.39681256 1.0641595 nan
2.4279552 -0.40150514 1.0641875 nan
2.4259992 -0.40620509 1.0641373 nan
2.4090512 -0.41092494 1.0635004 nan
2.3911033 -0.41558129 1.062824 nan
2.3911457 -0.42020482 1.0628515 nan
2.3911884 -0.42482835 1.0628792 nan
2.3902311 -0.42944625 1.0628676 nan
2.4043977 0.45165902 1.0538131 nan
2.4064336 0.44768649 1.0539114 nan
2.4064765 0.44301999 1.0539393 nan
2.4045265 0.43767077 1.0538968 nan
2.3965974 0.43029177 1.0536427 nan
2.390661 0.42361814 1.0534589 nan
2.3817348 0.41595918 1.0531694 nan
2.3817773 0.41133946 1.0531969 nan
2.3868027 0.40837997 1.053401 nan
2.3868454 0.40375084 1.0534286 nan
2.3978503 0.40273339 1.0538447 nan
2.3958998 0.39743072 1.0538018 nan
2.3959427 0.39278489 1.0538296 nan
2.3959854 0.38813895 1.0538573 nan
2.3910446 0.38188869 1.0537083 nan
2.3910873 0.37725204 1.0537361 nan
2.3871431 0.37134689 1.0536222 nan
2.3871858 0.36671776 1.0536499 nan
2.3842382 0.36114842 1.0535715 nan
2.3842809 0.35652477 1.0535991 nan
2.3843234 0.35190123 1.0536267 nan
2.3853626 0.3475855 1.0536897 nan
2.3794241 0.34112453 1.0535047 nan
2.3774731 0.33590215 1.0534614 nan
2.3974521 0.33733588 1.0541981 nan
2.3994884 0.33328885 1.054297 nan
2.3795938 0.32266766 1.0536151 nan
2.3746519 0.31657034 1.0534651 nan
2.3956292 0.31815523 1.0542383 nan
2.3956718 0.31351107 1.054266 -3.2757355e+38
2.3877392 0.306539 1.0540096 -3.008848e+38
2.4074037 -0.20137951 1.0576038 nan
2.4104431 -0.20578489 1.057742 nan
2.4284654 -0.20897083 1.0584319 nan
2.4454896 -0.21230412 1.0590852 nan
2.4595172 -0.21593577 1.0596287 nan
2.4635565 -0.22038414 1.0598043 nan
2.4446208 -0.2265628 1.0591332 nan
2.4446645 -0.23128895 1.0591614 nan
2.4447079 -0.2360151 1.0591897 nan
2.4497461 -0.24039634 1.0594022 nan
2.4497898 -0.24513184 1.0594305 nan
2.4308519 -0.2511071 1.0587581 nan
2.4298964 -0.25587052 1.0587493 nan
2.4039643 -0.26216823 1.0578181 nan
2.3760333 -0.26848817 1.0568123 nan
2.3640866 -0.27377903 1.0563967 nan
2.3521395 -0.27902514 1.0559809 -2.3131163e+38
2.3391929 -0.28428051 1.0555278 -2.1134725e+38
2.3372362 -0.28891328 1.055481 -2.6064363e+38
2.3372779 -0.29343793 1.055508 -2.6732108e+38
2.3363202 -0.29801103 1.0554981 -2.7131919e+38
2.3363616 -0.30253381 1.0555251 -2.5126084e+38
2.3743732 -0.30535698 1.0569582 -2.659345e+38
2.3564293 -0.31072217 1.0563194 -2.6730064e+38
2.3554721 -0.31532326 1.0563096 -2.6062842e+38
2.3205402 -0.32125103 1.0550407 -2.6457951e+38
2.3225801 -0.32566944 1.0551417 -2.739154e+38
2.3226213 -0.3301661 1.0551685 -2.6729013e+38
2.323662 -0.33462924 1.0552325 -2.793001e+38
2.3406918 -0.33858943 1.0558897 -2.7269047e+38
2.3417327 -0.34308988 1.0559539 -2.7269047e+38
2.3437734 -0.34756613 1.0560551 -2.7269558e+38
2.3428156 -0.35212803 1.0560451 -2.7269558e+38
2.3438568 -0.35663781 1.0561093 -2.7135564e+38
2.3438985 -0.36117366 1.0561364 -2.6201456e+38
2.3439403 -0.36570948 1.0561635 -2.499793e+38
2.343982 -0.37024534 1.0561906 -2.4063821e+38
2.3440237 -0.37478119 1.0562178 -2.1666416e+38
2.3610563 -0.37906417 1.0568769 -2.9935774e+38
2.3561008 -0.38369679 1.0567182 -3.2866349e+38
2.3921249 -0.38785392 1.0580846 nan
2.4091594 -0.39232162 1.0587449 nan
2.4261944 -0.39685276 1.0594054 nan
2.4282367 -0.4015305 1.059508 nan
2.4092879 -0.40629297 1.0588284 nan
2.4093306 -0.41095012 1.0588562 nan
2.3903811 -0.41560623 1.058176 nan
2.3904235 -0.42022792 1.0582036 nan
2.390466 -0.42484957 1.0582312 nan
2.3915083 -0.42947692 1.0582961 nan
2.405674 0.45198065 1.0491967 nan
2.4067135 0.44766128 1.0492579 nan
2.4067564 0.44299477 1.0492858 nan
2.4048061 0.43764561 1.0492469 nan
2.3968763 0.43026668 1.0490078 nan
2.3929327 0.42426831 1.048902 nan
2.3820121 0.41593426 1.0485623 nan
2.381058 0.41098052 1.0485566 nan
2.391067 0.40968317 1.0489184 nan
2.3921065 0.40537673 1.0489795 nan
2.3991258 0.40303653 1.0492413 nan
2.3961787 0.39740568 1.0491687 nan
2.3962214 0.39275974 1.0491965 nan
2.3962641 0.3881138 1.0492243 nan
2.3973038 0.38378876 1.0492855 nan
2.3993397 0.37977892 1.0493803 nan
2.3973892 0.37449312 1.0493411 nan
2.3974319 0.36984533 1.0493689 nan
2.3964777 0.3648842 1.0493631 nan
2.3925331 0.35899204 1.0492567 nan
2.3855975 0.35218602 1.0490495 nan
2.3856401 0.34756047 1.0490772 nan
2.3797009 0.34109956 1.0489033 nan
2.3767529 0.33557314 1.0488302 nan
2.3997247 0.33791512 1.0496305 nan
2.4017615 0.33386427 1.0497255 nan
2.3828616 0.32353812 1.0491145 nan
2.3799131 0.31802845 1.0490412 nan
2.3799555 0.31341428 1.0490688 nan
2.3979447 0.31407177 1.0497022 -3.3154578e+38
2.3979876 0.30942404 1.0497299 -3.0352778e+38
2.4126778 -0.20097585 1.0531341 nan
2.410723 -0.20581011 1.0530921 nan
2.4287472 -0.20899622 1.0537485 nan
2.4457734 -0.21232969 1.0543703 nan
2.4598026 -0.21596147 1.0548877 nan
2.4638424 -0.22040989 1.055056 nan
2.4449046 -0.22658835 1.0544201 nan
2.444948 -0.23131451 1.0544484 nan
2.4469895 -0.23589897 1.0545466 nan
2.4510293 -0.24035299 1.0547148 nan
2.4480755 -0.24529167 1.0546381 nan
2.430135 -0.25119776 1.0540361 nan
2.4301782 -0.25589591 1.0540642 nan
2.39625 -0.26268542 1.0529009 nan
2.4012883 -0.26702195 1.0531039 nan
2.385344 -0.27259046 1.0525707 nan
2.3893833 -0.276981 1.0527385 -3.1404622e+38
2.3754368 -0.28235933 1.0522749 -2.7937703e+38
2.3744798 -0.28700706 1.0522673 -2.9672476e+38
2.3735228 -0.29165107 1.0522597 -2.8605006e+38
2.3725655 -0.29629135 1.0522521 -2.8205195e+38
2.3905954 -0.30004281 1.0529118 -2.8335437e+38
2.3906379 -0.30466634 1.0529394 -2.9803322e+38
2.3906803 -0.30928987 1.0529671 -2.9405646e+38
2.3727343 -0.31465116 1.0523617 -2.780432e+38
2.3377991 -0.32061028 1.0511582 -2.8601282e+38
2.3378406 -0.32513493 1.0511853 -3.0335536e+38
2.3368826 -0.32969499 1.051177 -2.914032e+38
2.3359251 -0.33425128 1.0511689 -2.8206212e+38
2.3369658 -0.33874056 1.0512311 -2.8469986e+38
2.3400059 -0.34317398 1.0513638 -2.8336542e+38
2.3570383 -0.34722763 1.0519899 -2.8736353e+38
2.3570802 -0.35178775 1.0520172 -2.7802245e+38
2.3601208 -0.35627526 1.0521502 -2.7801115e+38
2.3611624 -0.36081862 1.0522127 -2.8335402e+38
2.3612044 -0.36538619 1.0522401 -2.7802255e+38
2.3762395 -0.36967483 1.0527968 -2.6067482e+38
2.3782809 -0.37423691 1.0528948 -2.7932492e+38
2.3763242 -0.37886593 1.0528517 nan
2.4093533 -0.38303256 1.054045 nan
2.4093959 -0.38768968 1.0540729 nan
2.4094388 -0.3923468 1.0541006 nan
2.4324739 -0.39683372 1.0549418 nan
2.4465125 -0.40145627 1.0554651 nan
2.4285614 -0.40624848 1.0548564 nan
2.4126093 -0.41096988 1.0543182 nan
2.3926578 -0.41563135 1.0536379 nan
2.3936999 -0.42025867 1.0537009 nan
2.3937426 -0.42488596 1.0537286 nan
2.393785 -0.42951322 1.0537562 nan
2.4079473 0.45264947 1.044608 nan
2.4089868 0.44832617 1.0446674 nan
2.4090297 0.44365603 1.0446953 nan
2.395119 0.43420655 1.0442821 nan
2.3971553 0.43024153 1.0443729 nan
2.3952043 0.42491847 1.0443376 nan
2.3643482 0.40986532 1.0433877 nan
2.365387 0.40561301 1.0434467 nan
2.3983228 0.41198236 1.0445155 nan
2.3814201 0.40171975 1.0440066 nan
2.3814626 0.3971017 1.0440342 nan
2.3785145 0.39150447 1.043967 nan
2.3965001 0.39273459 1.0445634 nan
2.396543 0.38808864 1.0445912 nan
2.3965857 0.3834427 1.044619 nan
2.378684 0.37305516 1.0440773 nan
2.3817174 0.36939412 1.0441998 nan
2.3997045 0.37045068 1.0447973 nan
2.3997471 0.36579913 1.0448251 nan
2.39979 0.3611477 1.0448529 nan
2.3948481 0.35494787 1.0447222 nan
2.3968847 0.35092121 1.0448133 nan
2.3869572 0.343216 1.044524 nan
2.3820145 0.3370685 1.0443929 nan
2.4000039 0.33788997 1.0449919 nan
2.4000466 0.33323854 1.0450196 nan
2.381145 0.32291621 1.044444 nan
2.3801901 0.31800348 1.0444398 nan
2.3802326 0.3133893 1.0444673 nan
2.380275 0.30877507 1.0444949 -3.3153527e+38
2.3982663 0.30939889 1.045095 -3.0485172e+38
2.3883374 0.30185968 1.0448046 -3.035596e+38
2.3893771 0.29751796 1.0448641 -3.1556434e+38
2.4459701 -0.20289919 1.0495989 nan
2.4460135 -0.20762722 1.0496272 nan
2.4460571 -0.21235524 1.0496554 nan
2.4660828 -0.21551746 1.0503452 nan
2.4621301 -0.22058848 1.0502414 nan
2.4641719 -0.22519724 1.050336 nan
2.4452317 -0.23134007 1.0497353 nan
2.4452751 -0.23606621 1.0497636 nan
2.4473169 -0.24065444 1.0498581 nan
2.4453621 -0.24551854 1.0498201 nan
2.4484029 -0.250049 1.0499477 nan
2.4334579 -0.25573123 1.0494785 nan
2.4205105 -0.26123452 1.0490754 nan
2.4205537 -0.26591402 1.0491033 nan
2.4046078 -0.27151781 1.0486001 nan
2.4066494 -0.27605566 1.0486943 nan
2.4096899 -0.28054696 1.0488218 -3.1806526e+38
2.4097328 -0.28520596 1.0488496 -3.2207377e+38
2.4077771 -0.28996554 1.048811 -3.1676767e+38
2.4068205 -0.29466924 1.0488055 -2.980855e+38
2.4278507 -0.29834461 1.0495319 -2.8602293e+38
2.4069061 -0.30397603 1.0488611 -2.9803808e+38
2.4049499 -0.30871511 1.0488224 -2.9537506e+38
2.4049926 -0.31336477 1.0488502 -2.967095e+38
2.4070344 -0.31793621 1.0489446 -3.0207298e+38
2.4260674 -0.32188198 1.0496055 -3.0341262e+38
2.4241116 -0.32664156 1.0495669 -3.020628e+38
2.4051635 -0.33196342 1.0489613 -2.8871838e+38
2.3872147 -0.3371827 1.0483887 -2.9665215e+38
2.389256 -0.34173924 1.048483 -2.9531251e+38
2.3932967 -0.34624738 1.0486441 -2.9531766e+38
2.3943391 -0.35084859 1.0487051 -2.9398322e+38
2.3763885 -0.35591301 1.0481316 -2.8869171e+38
2.3784301 -0.36046395 1.0482259 -2.9002613e+38
2.3784723 -0.36506322 1.0482533 -2.8736274e+38
2.3925099 -0.36940232 1.048749 -2.7001503e+38
2.3915529 -0.37404442 1.0487431 -3.1129418e+38
2.372601 -0.37895018 1.048135 nan
2.4096327 -0.38305774 1.0494008 nan
2.4096756 -0.38771486 1.0494286 nan
2.4097183 -0.39237198 1.0494565 nan
2.4327559 -0.39685914 1.0502548 nan
2.4467962 -0.40148184 1.050752 nan
2.428843 -0.40627384 1.0501769 nan
2.4128892 -0.4109951 1.0496684 nan
2.3929353 -0.41565636 1.0490253 nan
2.3939776 -0.4202837 1.0490866 nan
2.3940201 -0.42491099 1.0491142 nan
2.4082274 0.45262426 1.0399525 nan
2.4092672 0.4483009 1.0400101 nan
2.4093101 0.44363075 1.040038 nan
2.4073594 0.43827784 1.0400066 nan
2.4074023 0.43361139 1.0400345 nan
2.4074452 0.42894495 1.0400624 nan
2.3835635 0.41622001 1.039378 nan
2.3786216 0.40992886 1.0392572 nan
2.3995986 0.41228932 1.0399084 nan
2.3836911 0.40235502 1.0394609 nan
2.3817396 0.39707679 1.0394291 nan
2.3787913 0.39147955 1.0393674 nan
2.3967791 0.39270955 1.0399303 nan
2.3968217 0.38806361 1.0399581 nan
2.3968644 0.38341767 1.0399859 nan
2.3789608 0.37303013 1.0394777 nan
2.3829913 0.36968631 1.0396245 nan
2.4009809 0.37074077 1.0401884 nan
2.3980324 0.36514729 1.0401268 nan
2.4000692 0.36112255 1.0402142 nan
2.3931324 0.35430342 1.0400332 nan
2.3951693 0.35028058 1.0401206 nan
2.3832462 0.3419674 1.03979 nan
2.3822918 0.33704358 1.0397878 nan
2.4002831 0.33786482 1.0403532 nan
2.4003258 0.33321339 1.040381 nan
2.3834162 0.32348818 1.0399005 nan
2.3804669 0.31797856 1.0398383 nan
2.3805094 0.31336439 1.039866 nan
2.3805518 0.30875015 1.0398935 -3.2484735e+38
2.3785999 0.303554 1.0398612 -2.8481422e+38
2.3736558 0.29749787 1.039739 -2.9421337e+38
2.4661934 -0.19648184 1.0454792 nan
2.4462538 -0.20292476 1.044884 nan
2.4462972 -0.20765279 1.0449122 nan
2.4683232 -0.21061756 1.045627 nan
2.4703655 -0.21523008 1.045718 nan
2.4574192 -0.22099629 1.0453405 nan
2.4624593 -0.22537209 1.0455251 nan
2.4645014 -0.2299846 1.045616 nan
2.4455588 -0.23609176 1.0450505 nan
2.4436035 -0.24095583 1.0450162 nan
2.4396496 -0.2459466 1.0449193 nan
2.445689 -0.25027025 1.0451353 nan
2.4297426 -0.25601012 1.0446626 nan
2.4187927 -0.26138279 1.0443461 nan
2.4158373 -0.26623744 1.0442801 nan
2.4188786 -0.27073434 1.044402 nan
2.4259174 -0.2750189 1.0446494 nan
2.4279597 -0.27959967 1.0447402 -3.3536701e+38
2.4230058 -0.28455305 1.0446113 nan
2.4200501 -0.28938717 1.0445452 -3.394111e+38
2.4210925 -0.29401642 1.0446045 -3.2873557e+38
2.4251337 -0.29850966 1.0447581 -3.2207884e+38
2.423178 -0.30328605 1.0447233 -3.1140332e+38
2.4212217 -0.30805495 1.0446885 -3.0872969e+38
2.4132681 -0.31306219 1.0444648 -3.0606081e+38
2.4163098 -0.31760949 1.0445871 -3.0873476e+38
2.4233501 -0.32201904 1.0448352 -3.0873476e+38
2.4233932 -0.32670227 1.0448632 -3.1274311e+38
2.404443 -0.33202204 1.044293 -3.15412e+38
2.4074848 -0.33657494 1.0444152 -3.1405697e+38
2.4085271 -0.34119856 1.0444746 -3.1005363e+38
2.4125688 -0.34574223 1.0446285 -3.1667378e+38
2.4126115 -0.35040492 1.0446564 -3.2201155e+38
2.3956592 -0.35547858 1.0441481 -3.2202682e+38
2.3957019 -0.3601096 1.0441757 -3.2469572e+38
2.392745 -0.36480191 1.0441086 -3.2338669e+38
2.391788 -0.36944589 1.0441048 -3.2739004e+38
2.4098265 -0.37376866 1.0447009 nan
2.390873 -0.37870783 1.0441284 nan
2.4099121 -0.38308293 1.0447565 nan
2.4269521 -0.38755113 1.0453219 nan
2.4269953 -0.39223999 1.04535 nan
2.4270384 -0.39692882 1.045378 nan
2.4330812 -0.4015846 1.0455959 nan
2.4181256 -0.40633935 1.045149 nan
2.4131689 -0.41102031 1.0450186 nan
2.3962128 -0.41568163 1.0445077 nan
2.399255 -0.42031848 1.0446305 nan
2.3992977 -0.42495507 1.0446583 nan
2.4085076 0.45259899 1.0352972 nan
2.4105444 0.44862086 1.0353806 nan
2.4105873 0.44394875 1.0354085 nan
2.4076395 0.43825263 1.0353531 nan
2.4076824 0.43358618 1.035381 nan
2.4077253 0.42891973 1.0354089 nan
2.3878288 0.41753811 1.0348804 nan
2.3808925 0.41057175 1.0347133 nan
2.3998778 0.41226417 1.0352699 nan
2.3839684 0.40232998 1.034852 nan
2.3840108 0.39770836 1.0348797 nan
2.3790681 0.39145464 1.0347679 nan
2.3970578 0.3926844 1.0352974 nan
2.3971004 0.38803846 1.0353251 nan
2.3971434 0.38339251 1.0353528 nan
2.3792377 0.37300521 1.0348781 nan
2.3832686 0.36966127 1.0350174 nan
2.3813171 0.36441094 1.0349891 nan
2.379365 0.35916811 1.0349609 nan
2.3983541 0.36047435 1.0355197 nan
2.3973997 0.35551685 1.0355195 nan
2.3974423 0.35087103 1.0355473 nan
2.3825264 0.34163648 1.0351551 nan
2.3825688 0.33701855 1.0351827 nan
2.400562 0.33783966 1.0357146 nan
2.400605 0.33318824 1.0357424 nan
2.3836935 0.32346314 1.0352935 nan
2.3807437 0.31795359 1.035237 nan
2.3807862 0.31333941 1.0352645 nan
2.3808286 0.30872518 1.035292 -3.2349727e+38
2.3808711 0.304111 1.0353197 -2.8479856e+38
2.3809135 0.29949677 1.0353472 -3.0348657e+38
2.4664793 -0.1965076 1.040727 nan
2.4465375 -0.20295033 1.040169 nan
2.4485793 -0.20751436 1.040256 nan
2.4536195 -0.21184543 1.040431 nan
2.455662 -0.21642995 1.040518 nan
2.4587035 -0.22094557 1.0406345 nan
2.4587471 -0.22569598 1.0406629 nan
2.4587908 -0.2304464 1.0406913 nan
2.4388463 -0.23661299 1.0401316 nan
2.4388897 -0.24132609 1.0401598 nan
2.4349353 -0.24630749 1.0400703 nan
2.4439738 -0.25042623 1.0403633 nan
2.4450166 -0.25508529 1.0404209 nan
2.4100778 -0.2619614 1.0394182 nan
2.4111202 -0.26656076 1.0394756 nan
2.4141614 -0.27104837 1.0395918 nan
2.4281981 -0.27493247 1.0400325 nan
2.4282413 -0.27962506 1.0400606 nan
2.4282844 -0.28431761 1.0400887 nan
2.4283276 -0.28901023 1.0401167 nan
2.4283707 -0.29370278 1.0401447 nan
2.4284139 -0.29839537 1.0401728 -3.3404757e+38
2.4434519 -0.30241764 1.0406442 -3.2203242e+38
2.4424953 -0.307181 1.0406429 -3.0741073e+38
2.4325421 -0.31230927 1.0403752 -3.0741073e+38
2.4285865 -0.31716567 1.040285 -3.1666849e+38
2.4326284 -0.32170933 1.0404314 -3.1933216e+38
2.4236743 -0.3267276 1.040193 -3.1806027e+38
2.4237173 -0.33141086 1.040221 -3.1806027e+38
2.4267592 -0.33599922 1.0403378 -3.1806027e+38
2.4288023 -0.34062853 1.0404252 -3.1272253e+38
2.4318449 -0.34523743 1.0405421 -3.1533912e+38
2.4318881 -0.34993559 1.0405703 -3.220113e+38
2.4149339 -0.35504454 1.0400938 -3.2468532e+38
2.4149768 -0.35971099 1.0401217 -3.2868342e+38
2.4110203 -0.36445916 1.0400307 -3.3401023e+38
2.4100633 -0.36913672 1.0400288 nan
2.4291043 -0.37347656 1.0406214 nan
2.4101489 -0.37845099 1.0400845 nan
2.4271905 -0.38288766 1.0406181 nan
2.4272337 -0.38757649 1.0406461 nan
2.4272766 -0.39226535 1.0406741 nan
2.4273198 -0.39695418 1.0407021 nan
2.410363 -0.40173659 1.0402237 nan
2.4134059 -0.4063828 1.0403409 nan
2.420449 -0.41103312 1.0405774 nan
2.4014912 -0.41570714 1.0400387 nan
2.4015338 -0.42034745 1.0400665 nan
2.398576 -0.42497632 1.0400047 nan
2.4128187 0.44928569 1.0307733 nan
2.4128616 0.44460994 1.0308013 nan
2.3899729 0.43208319 1.0302329 nan
2.3900154 0.42745024 1.0302607 nan
2.390058 0.42281741 1.0302883 nan
2.3891037 0.41784877 1.0302901 nan
2.3821666 0.41088063 1.030136 nan
2.400157 0.41223902 1.0306312 nan
2.3822515 0.40164477 1.0301912 nan
2.3822939 0.39702684 1.0302187 nan
2.3803418 0.39175606 1.0301943 nan
2.3983338 0.39298379 1.0306903 nan
2.3973794 0.3880133 1.0306921 nan
2.4004135 0.38432986 1.030798 nan
2.3825064 0.37393719 1.0303568 nan
2.3845432 0.36995333 1.0304365 nan
2.3825912 0.36470121 1.030412 nan
2.3806388 0.35945654 1.0303874 nan
2.4006274 0.36107224 1.030937 nan
2.3956838 0.35487252 1.0308342 nan
2.3977211 0.35084587 1.0309142 nan
2.3828034 0.34161156 1.0305499 nan
2.3828459 0.33699363 1.0305775 nan
2.4008412 0.33781451 1.031076 nan
2.4008842 0.33316308 1.0311037 nan
2.3839707 0.32343823 1.0306865 nan
2.3810208 0.31792861 1.0306355 nan
2.3810632 0.31331444 1.0306631 nan
2.3811057 0.3087002 1.0306907 -3.2217324e+38
2.3811481 0.30408603 1.0307182 -2.8347973e+38
2.3811905 0.2994718 1.0307459 -2.8752009e+38
2.4318302 -0.2042338 1.0350422 nan
2.4298744 -0.2090978 1.0350153 nan
2.4519053 -0.2120313 1.0356481 nan
2.4559467 -0.21645561 1.0357864 nan
2.4559903 -0.22120044 1.0358146 nan
2.4540348 -0.22609434 1.0357881 nan
2.4500804 -0.23112607 1.0357063 nan
2.4331322 -0.23706326 1.0352664 nan
2.4371736 -0.24148943 1.0354047 nan
2.4302199 -0.24666826 1.0352398 nan
2.4372602 -0.25090817 1.0354609 nan
2.4373035 -0.25561753 1.0354891 nan
2.4123566 -0.26186365 1.0348274 nan
2.4163978 -0.26628795 1.0349656 nan
2.4174407 -0.2709004 1.0350212 nan
2.4264803 -0.27506959 1.0352978 nan
2.4265234 -0.27975845 1.0353258 nan
2.428566 -0.284343 1.0354091 nan
2.4286091 -0.28903559 1.0354371 nan
2.4286523 -0.29372817 1.0354651 nan
2.4286954 -0.29842073 1.0354933 nan
2.4257393 -0.30324733 1.0354382 -3.327182e+38
2.4427786 -0.30720654 1.0359372 -3.3404757e+38
2.4308245 -0.31241655 1.0356327 -3.3938014e+38
2.4288681 -0.31719103 1.0356054 -3.3670062e+38
2.4309108 -0.32180917 1.0356889 -3.2869397e+38
2.4419522 -0.32611668 1.0360222 -3.2735464e+38
2.4239984 -0.33143616 1.0355507 -3.260202e+38
2.4270408 -0.33602458 1.0356619 -3.3003888e+38
2.4290838 -0.3406539 1.0357456 -3.3137332e+38
2.4321268 -0.34526283 1.035857 -3.3403169e+38
2.4321699 -0.34996101 1.0358851 -3.3670057e+38
2.4342132 -0.35461086 1.0359688 -3.3935388e+38
2.4362562 -0.35926822 1.0360526 -3.3268687e+38
2.4322996 -0.36405551 1.0359693 nan
2.4293427 -0.36880937 1.0359138 nan
2.4293859 -0.37350196 1.0359418 nan
2.4094284 -0.37849098 1.0354124 nan
2.406471 -0.38318512 1.0353566 nan
2.4065137 -0.38783479 1.0353844 nan
2.4075563 -0.39247522 1.0354401 nan
2.4105995 -0.39710465 1.0355517 nan
2.4106424 -0.40176177 1.0355794 nan
2.4156859 -0.40640077 1.0357471 nan
2.42273 -0.41105488 1.0359706 nan
2.4027696 -0.41573232 1.0354393 nan
2.4048126 -0.42037848 1.0355229 nan
2.4048553 -0.42502439 1.0355507 nan
2.412102 0.44891536 1.0260864 nan
2.4081566 0.44286859 1.0260181 nan
2.3902509 0.43205816 1.025613 nan
2.3902936 0.42742521 1.0256406 nan
2.389339 0.42245477 1.0256442 nan
2.3893816 0.41782373 1.025672 nan
2.3824437 0.41085571 1.0255308 nan
2.4004362 0.41221386 1.0259925 nan
2.3825285 0.40161985 1.025586 nan
2.382571 0.3970018 1.0256137 nan
2.3806188 0.39173114 1.0255929 nan
2.3806612 0.38711685 1.0256205 nan
2.3797064 0.38218004 1.0256239 nan
2.382741 0.37853009 1.0257239 nan
2.3827834 0.37391216 1.0257516 nan
2.3868153 0.37056249 1.025876 nan
2.3848631 0.36530668 1.0258552 nan
2.3829107 0.36005837 1.0258343 nan
2.4009066 0.36104709 1.0262983 nan
2.3889802 0.35268015 1.0260351 nan
2.3880253 0.34774315 1.0260385 nan
2.3990402 0.34648067 1.0263331 nan
2.4010777 0.3424409 1.0264095 nan
2.4011204 0.33778936 1.0264373 nan
2.4011631 0.33313793 1.0264651 nan
2.3862431 0.32401007 1.0261281 nan
2.3822956 0.31820029 1.0260584 nan
2.3863282 0.31476289 1.0261834 nan
2.3813825 0.30867529 1.0260892 -3.2217841e+38
2.3814249 0.30406111 1.0261168 -2.9015711e+38
2.3814673 0.29944688 1.0261444 -2.9152861e+38
2.4331117 -0.20417537 1.0303808 nan
2.4321554 -0.20895924 1.0303832 nan
2.4521894 -0.21205693 1.0309238 nan
2.4542322 -0.21663779 1.0310034 nan
2.4522765 -0.22153164 1.0309805 nan
2.450321 -0.22641805 1.0309575 nan
2.4453664 -0.23151493 1.0308573 nan
2.4284163 -0.23744264 1.030449 nan
2.4324579 -0.24185951 1.0305798 nan
2.4285026 -0.24682778 1.0305052 nan
2.440542 -0.25073805 1.0308417 nan
2.4405851 -0.25545302 1.03087 nan
2.4196343 -0.26145864 1.0303577 nan
2.4236765 -0.26589605 1.0304886 nan
2.4247193 -0.27052158 1.0305424 nan
2.4267616 -0.27509496 1.0306219 nan
2.4268048 -0.27978379 1.0306499 nan
2.4288476 -0.2843684 1.0307295 nan
2.4288907 -0.28906095 1.0307575 nan
2.4309337 -0.29365674 1.0308372 nan
2.428977 -0.29844612 1.0308136 nan
2.4280205 -0.30318335 1.0308158 nan
2.4420619 -0.30727485 1.0312058 -3.3934877e+38
2.4411056 -0.31203261 1.031208 nan
2.4341493 -0.31702107 1.0310552 -3.3669573e+38
2.4431918 -0.32138813 1.0313162 -3.260202e+38
2.4442356 -0.3260715 1.0313703 -3.2600957e+38
2.4252794 -0.33142802 1.0309063 -3.2867324e+38
2.4293222 -0.3359867 1.0310379 -3.286889e+38
2.4313655 -0.3406198 1.0311179 -3.3402147e+38
2.4364088 -0.34517676 1.0312756 -3.3535066e+38
2.4364522 -0.34988239 1.0313038 -3.3801433e+38
2.4364953 -0.35458803 1.0313319 -3.3801944e+38
2.4365387 -0.35929364 1.0313599 -3.2867835e+38
2.4345818 -0.36404011 1.0313362 nan
2.4336247 -0.36876056 1.0313382 nan
2.4316678 -0.37349397 1.0313144 nan
2.4087076 -0.37853098 1.0307441 nan
2.4087505 -0.38318437 1.0307719 nan
2.4067926 -0.38785991 1.0307477 nan
2.4068356 -0.39250958 1.0307754 nan
2.409879 -0.39713719 1.0308814 nan
2.4109218 -0.40178698 1.0309353 nan
2.415966 -0.40642601 1.0310935 nan
2.4230108 -0.41108018 1.031304 nan
2.4040482 -0.41575754 1.030836 nan
2.4050915 -0.4204036 1.0308899 -3.3681055e+38
2.4051342 -0.42504951 1.0309176 -3.3681055e+38
2.3903584 0.45056456 1.0208821 nan
2.3913984 0.44627863 1.020932 nan
2.3894467 0.44095379 1.0209154 nan
2.3904862 0.43666595 1.0209652 nan
2.3905289 0.43203312 1.0209929 nan
2.3905716 0.42740017 1.0210207 nan
2.390614 0.42276734 1.0210483 nan
2.3906567 0.41813451 1.021076 nan
2.3847156 0.41149837 1.0209702 nan
2.3827634 0.40621275 1.0209533 nan
2.3828058 0.40159482 1.0209808 nan
2.3828483 0.39697689 1.0210085 nan
2.3818934 0.39203256 1.0210137 nan
2.3819358 0.38741642 1.0210414 nan
2.3799832 0.382155 1.0210243 nan
2.3800256 0.37754267 1.0210519 nan
2.3800681 0.37293035 1.0210794 nan
2.385098 0.36990339 1.0212188 nan
2.3841429 0.36496645 1.021224 nan
2.3841853 0.36034662 1.0212516 nan
2.4011858 0.36102194 1.0216596 nan
2.3862655 0.35172623 1.0213516 nan
2.3843126 0.34648722 1.0213344 nan
2.3993192 0.34645557 1.0216982 nan
2.4013567 0.34241575 1.0217708 nan
2.4013996 0.3377642 1.0217986 nan
2.4014423 0.33311278 1.0218265 nan
2.3845251 0.32338816 1.0214725 nan
2.3825727 0.31817538 1.0214552 nan
2.3866057 0.31473798 1.0215726 nan
2.3846526 0.30952877 1.0215553 -3.1951476e+38
2.3817017 0.30403614 1.0215154 -2.8616423e+38
2.3817441 0.29942191 1.0215429 -2.8755664e+38
2.4504309 -0.20750915 1.0261238 nan
2.4524736 -0.21208255 1.0261996 nan
2.4525173 -0.21681991 1.026228 nan
2.4505615 -0.22171003 1.0262086 nan
2.4476061 -0.22666718 1.0261655 nan
2.4456499 -0.23154047 1.0261462 nan
2.426698 -0.23760958 1.0257219 nan
2.43274 -0.24188493 1.0258929 nan
2.4287841 -0.24685316 1.0258256 nan
2.4408247 -0.25076354 1.0261399 nan
2.4428675 -0.2553519 1.0262158 nan
2.419915 -0.26148391 1.0256948 nan
2.4249573 -0.26586181 1.0258422 nan
2.4269998 -0.27043146 1.025918 nan
2.4310427 -0.27489692 1.0260416 nan
2.4310858 -0.27959323 1.0260698 nan
2.4271293 -0.28449801 1.026002 nan
2.4271724 -0.28918684 1.0260301 nan
2.4302154 -0.29373053 1.02613 nan
2.4302585 -0.29842496 1.026158 nan
2.4293017 -0.30316406 1.0261621 nan
2.441345 -0.30734316 1.0264779 nan
2.4243882 -0.31275383 1.0260983 nan
2.4244313 -0.31743708 1.0261261 -3.3935449e+38
2.4254744 -0.32208312 1.0261782 -3.3668559e+38
2.4255173 -0.32676825 1.0262061 nan
2.4255605 -0.33145335 1.0262341 nan
2.430604 -0.33598047 1.0263824 nan
2.4326475 -0.34061548 1.0264586 nan
2.4366913 -0.34520218 1.026583 nan
2.4397347 -0.34982982 1.0266833 -3.3269247e+38
2.4387779 -0.3545652 1.0266874 nan
2.4388213 -0.35927457 1.0267155 nan
2.4368644 -0.36402473 1.0266955 nan
2.4339068 -0.36878598 1.0266511 nan
2.4309492 -0.37353602 1.0266069 nan
2.408987 -0.37855613 1.0261036 nan
2.4090297 -0.38320953 1.0261314 nan
2.4250772 -0.38768578 1.026546 nan
2.4071145 -0.39253473 1.0261387 nan
2.4081573 -0.39717704 1.0261906 nan
2.416203 -0.40178478 1.026412 nan
2.421248 -0.40643319 1.026561 nan
2.4232917 -0.41110548 1.0266374 nan
2.4043269 -0.41578266 1.0262048 -2.5133313e+38
2.4053702 -0.42042872 1.0262568 -1.8077501e+38
2.4054129 -0.42507464 1.0262846 -1.8077501e+38
2.4054556 -0.42972058 1.0263124 -2.0470111e+38
2.3906364 0.45053941 1.0162622 nan
2.3906791 0.44590658 1.0162898 nan
2.3897245 0.44092876 1.0162972 nan
2.3917618 0.43698412 1.0163655 nan
2.3908069 0.43200797 1.0163729 nan
2.3908496 0.42737514 1.0164006 nan
2.390892 0.42274219 1.0164282 nan
2.3909347 0.41810936 1.0164559 nan
2.3869877 0.41214114 1.0164021 nan
2.3830404 0.40618783 1.0163481 nan
2.3830829 0.4015699 1.0163758 nan
2.3831253 0.39695185 1.0164033 nan
2.3821704 0.39200753 1.0164105 nan
2.3822129 0.38739151 1.0164381 nan
2.38026 0.38213009 1.0164248 nan
2.3803024 0.37751776 1.0164523 nan
2.3803449 0.37290543 1.0164798 nan
2.3843775 0.36956137 1.0165894 nan
2.3844202 0.36494154 1.0166169 nan
2.3844626 0.3603217 1.0166446 nan
2.4014647 0.36099678 1.0170211 nan
2.3985147 0.35541636 1.0169872 nan
2.3796017 0.34492356 1.0166247 nan
2.3936117 0.34459525 1.01694 nan
2.3966475 0.34087056 1.0170294 nan
2.3996835 0.33713484 1.0171189 nan
2.3997262 0.33248699 1.0171467 nan
2.3848023 0.32336324 1.0168655 nan
2.3818514 0.31785381 1.0168313 nan
2.386883 0.31471294 1.0169619 nan
2.3849299 0.30950373 1.0169482 -3.1288941e+38
2.3819788 0.30401123 1.016914 -2.7952846e+38
2.4497151 -0.20761672 1.0213814 nan
2.4507585 -0.21226835 1.0214316 nan
2.4508021 -0.21700197 1.0214598 nan
2.4498456 -0.22181198 1.0214663 nan
2.4478898 -0.22669274 1.0214506 nan
2.4459333 -0.23156603 1.021435 nan
2.4269795 -0.23763493 1.021046 nan
2.4270225 -0.24232377 1.0210741 nan
2.4270656 -0.2470126 1.0211021 nan
2.4261091 -0.25176662 1.0211082 nan
2.4091535 -0.2575298 1.0207621 nan
2.4141958 -0.26187783 1.0208999 nan
2.4182386 -0.26630414 1.0210159 nan
2.4182818 -0.27097619 1.0210438 nan
2.4293246 -0.27503398 1.0213143 nan
2.4273674 -0.27983451 1.0212982 nan
2.4294109 -0.28441912 1.0213704 nan
2.4294541 -0.2891117 1.0213984 nan
2.4314973 -0.29370755 1.0214707 nan
2.4315405 -0.29840383 1.0214987 nan
2.4295835 -0.30318943 1.0214826 nan
2.4246261 -0.3080959 1.0214 nan
2.4246693 -0.31277916 1.021428 nan
2.4247124 -0.31746241 1.0214559 nan
2.4257555 -0.32210848 1.0215061 nan
2.4277985 -0.32672295 1.0215784 nan
2.4278417 -0.33141178 1.0216064 nan
2.431886 -0.33597428 1.0217233 nan
2.4329295 -0.34064087 1.0217735 -3.3938503e+38
2.4389741 -0.34517193 1.0219349 -3.3934877e+38
2.4400175 -0.3498553 1.0219852 -3.3134732e+38
2.4390607 -0.35459065 1.0219911 nan
2.4391038 -0.35930002 1.0220193 nan
2.4371467 -0.36405018 1.0220029 nan
2.4341888 -0.3688114 1.0219642 nan
2.431231 -0.37356141 1.0219254 nan
2.4122672 -0.37853691 1.0215299 nan
2.4273157 -0.38300201 1.0218923 nan
2.4253583 -0.38771111 1.0218757 nan
2.4284022 -0.39236677 1.0219706 nan
2.4284453 -0.3970556 1.0219986 nan
2.413482 -0.40182641 1.0216916 nan
2.4195275 -0.40646568 1.0218534 nan
2.4195704 -0.41113773 1.0218815 nan
2.4006038 -0.41580725 1.0214841 -2.6067407e+38
2.4036479 -0.42044985 1.021579 -1.993842e+38
2.4036906 -0.42509204 1.0216067 -1.993842e+38
2.4037335 -0.42973423 1.0216345 -1.9140883e+38
2.386925 0.44911939 1.0115683 nan
2.4049213 0.45073819 1.0119281 nan
2.3880074 0.44021356 1.0116421 nan
2.39204 0.43695903 1.0117437 nan
2.3910849 0.43198293 1.0117528 nan
2.3911276 0.4273501 1.0117805 nan
2.3911703 0.42271715 1.0118082 nan
2.3912127 0.41808432 1.0118359 nan
2.3872652 0.41211611 1.0117894 nan
2.3853126 0.40682679 1.01178 nan
2.3843575 0.40187496 1.0117891 nan
2.3834023 0.39692694 1.0117981 nan
2.3824475 0.39198261 1.0118072 nan
2.3824899 0.38736647 1.0118347 nan
2.3994923 0.38823539 1.0121784 nan
2.3805792 0.37749285 1.0118527 nan
2.3806217 0.37288052 1.0118803 nan
2.3836572 0.36921924 1.0119637 nan
2.3836997 0.36460131 1.0119914 nan
2.3847399 0.36029667 1.0120376 nan
2.4007463 0.36066014 1.0123638 nan
2.3987935 0.35539132 1.0123541 nan
2.3798785 0.34489864 1.012027 nan
2.3879032 0.34273499 1.0122041 nan
2.391937 0.33932561 1.0123066 nan
2.3740184 0.32925445 1.0119973 nan
2.3750587 0.32495546 1.0120436 nan
2.3671181 0.31796724 1.0119212 nan
2.3641665 0.31249142 1.0118923 nan
2.3512359 0.30408019 1.0116758 nan
2.3492818 0.29893827 1.0116656 -2.9821604e+38
2.3463297 0.29351282 1.0116364 -2.595225e+38
2.4459996 -0.2079701 1.0165826 -2.6348473e+38
2.4510427 -0.21229395 1.0167111 -2.6885312e+38
2.451086 -0.21702757 1.0167394 -2.9554197e+38
2.4511297 -0.22176121 1.0167676 -2.9285798e+38
2.4481735 -0.22671831 1.0167357 -2.7951353e+38
2.4482169 -0.23144633 1.0167639 -3.1814903e+38
2.4272609 -0.23766029 1.0163702 -3.3415712e+38
2.427304 -0.24234913 1.0163982 nan
2.4273469 -0.24703796 1.0164262 nan
2.4273901 -0.25172681 1.0164542 nan
2.4094329 -0.25755495 1.0161197 nan
2.4114757 -0.26208737 1.0161878 nan
2.4095185 -0.26686546 1.0161753 nan
2.4105613 -0.27146304 1.0162233 nan
2.4136045 -0.27595267 1.0163118 nan
2.4136474 -0.28061539 1.0163395 nan
2.4186909 -0.28501761 1.0164685 nan
2.4187338 -0.28968966 1.0164964 nan
2.4317791 -0.29373294 1.0167873 nan
2.4318223 -0.29842925 1.0168154 nan
2.4298651 -0.30321482 1.0168029 nan
2.4279075 -0.30799294 1.0167905 nan
2.4279506 -0.31268179 1.0168185 nan
2.4279938 -0.31737062 1.0168465 nan
2.4270368 -0.32209665 1.0168543 nan
2.4290807 -0.326713 1.0169228 nan
2.4311242 -0.33133683 1.0169915 nan
2.4321678 -0.33599967 1.0170399 nan
2.4332113 -0.34066629 1.0170883 nan
2.4412572 -0.34514171 1.0172793 nan
2.4423013 -0.34982884 1.0173278 nan
2.441344 -0.35456792 1.0173355 nan
2.4413874 -0.359281 1.0173637 nan
2.437429 -0.36407563 1.0173103 nan
2.4334705 -0.36885533 1.0172567 nan
2.4315126 -0.3735868 1.017244 nan
2.4145477 -0.37853256 1.0169247 nan
2.4285975 -0.38301444 1.0172387 nan
2.4276402 -0.38771433 1.0172464 nan
2.4276831 -0.39240131 1.0172744 nan
2.4277263 -0.39708829 1.0173024 nan
2.4137616 -0.40185162 1.0170436 nan
2.4158053 -0.40650529 1.0171124 nan
2.4168489 -0.41116816 1.0171608 nan
2.3998814 -0.41583216 1.0168399 -2.8336459e+38
2.4039266 -0.42047495 1.0169497 -2.2732957e+38
2.4039693 -0.42511714 1.0169774 -2.3933953e+38
2.404012 -0.42975932 1.0170051 -2.3809898e+38
2.3872025 0.44909436 1.0069557 nan
2.3872449 0.44446892 1.0069834 nan
2.3912778 0.44122368 1.0070775 nan
2.3943131 0.43762022 1.0071549 nan
2.3913629 0.4319579 1.0071328 nan
2.3914056 0.42732507 1.0071605 nan
2.3914483 0.42269212 1.0071882 nan
2.3914907 0.41805929 1.0072159 nan
2.3875427 0.4120912 1.0071769 nan
2.3875854 0.40746576 1.0072045 nan
2.3876278 0.40284032 1.0072322 nan
2.3876703 0.39821488 1.0072598 nan
2.3837221 0.39228398 1.0072206 nan
2.3837645 0.38766617 1.0072483 nan
2.4017665 0.38885564 1.0075769 nan
2.380856 0.37746793 1.0072532 nan
2.381896 0.37317443 1.0072975 nan
2.3869278 0.37014538 1.0074089 nan
2.3859725 0.36520666 1.0074198 nan
2.3860149 0.36058503 1.0074474 nan
2.383064 0.35502905 1.0074246 nan
2.3990724 0.35536617 1.0077212 nan
2.3871405 0.34702772 1.007547 nan
2.387183 0.34240419 1.0075747 nan
2.3942108 0.33990854 1.0077202 nan
2.3772883 0.330136 1.0074614 nan
2.3773308 0.32553107 1.007489 nan
2.3673933 0.31794244 1.0073477 nan
2.3644414 0.31246662 1.0073245 nan
2.3515093 0.30405557 1.0071322 nan
2.3515513 0.29949915 1.0071594 -2.982159e+38
2.3466024 0.29348826 1.007102 -2.7018747e+38
2.4312403 -0.20452848 1.0115708 nan
2.4292836 -0.2093887 1.0115626 -2.7418684e+38
2.4333267 -0.21376094 1.0116633 -2.6488624e+38
2.4503701 -0.21713141 1.0120007 -2.8756652e+38
2.4514136 -0.22178681 1.0120472 -2.7954973e+38
2.4534574 -0.22637147 1.0121119 -2.6486567e+38
2.4505005 -0.23132667 1.0120854 -2.8878081e+38
2.4275422 -0.23768565 1.0116943 nan
2.4275854 -0.24237448 1.0117223 nan
2.4086266 -0.24833661 1.0114034 nan
2.4086695 -0.25299001 1.0114312 nan
2.4097123 -0.25758013 1.0114774 nan
2.4077544 -0.26235822 1.0114685 nan
2.4047968 -0.2671884 1.0114415 nan
2.4058399 -0.27177665 1.0114876 nan
2.4088833 -0.27625698 1.0115703 nan
2.4089262 -0.28091037 1.0115981 nan
2.4269731 -0.28462616 1.0119562 nan
2.4290171 -0.28921267 1.0120209 nan
2.432061 -0.29375833 1.012104 nan
2.4321041 -0.29845464 1.0121322 nan
2.4301467 -0.30324018 1.0121233 nan
2.4301898 -0.30793276 1.0121515 nan
2.4312332 -0.31258446 1.0121979 nan
2.4322767 -0.31723985 1.0122443 nan
2.4323199 -0.32193616 1.0122725 nan
2.4333637 -0.32659718 1.012319 nan
2.4514143 -0.33069357 1.0126793 nan
2.4374518 -0.33586726 1.012449 nan
2.439496 -0.3405135 1.0125141 nan
2.4425406 -0.34513935 1.0125977 nan
2.4435844 -0.34982836 1.0126444 nan
2.4606364 -0.35413545 1.0129874 nan
2.46068 -0.35888401 1.0130157 nan
2.4537201 -0.36377513 1.0129143 nan
2.4497614 -0.36858466 1.0128684 nan
2.4317944 -0.37361217 1.0125626 nan
2.4168286 -0.37852821 1.0123121 nan
2.433882 -0.38297525 1.0126559 nan
2.4169145 -0.38786113 1.0123678 nan
2.4249625 -0.39245418 1.0125445 nan
2.4250054 -0.39713556 1.0125725 nan
2.4160423 -0.40186593 1.0124328 nan
2.4140842 -0.40653768 1.0124235 nan
2.417129 -0.4111934 1.0125073 nan
2.3981581 -0.41585693 1.0121806 -2.9138164e+38
2.4002023 -0.42049196 1.0122457 -2.300137e+38
2.4012454 -0.42513058 1.012292 -2.3402221e+38
2.4032898 -0.4297787 1.0123571 -2.5001487e+38
2.38748 0.44906932 1.0023432 nan
2.3905156 0.44548458 1.0024149 nan
2.3945489 0.44223362 1.0025016 nan
2.3915985 0.4365657 1.0024852 nan
2.3896456 0.43125027 1.0024832 nan
2.390686 0.42696053 1.0025257 nan
2.3917263 0.42266709 1.0025681 nan
2.3917687 0.41803426 1.0025959 nan
2.3878202 0.41206616 1.0025643 nan
2.3878629 0.40744072 1.002592 nan
2.3879054 0.40281528 1.0026196 nan
2.387948 0.39818984 1.0026473 nan
2.3889883 0.39389074 1.0026897 nan
2.3910267 0.38991255 1.0027471 nan
2.4060373 0.39012092 1.0029979 nan
2.3841264 0.37840527 1.0026983 nan
2.3861649 0.37442511 1.0027556 nan
2.3901989 0.37107152 1.0028429 nan
2.3892434 0.36612713 1.0028557 nan
2.3852942 0.36024672 1.0028236 nan
2.3853366 0.355627 1.0028512 nan
2.4023449 0.35626978 1.0031329 nan
2.3904119 0.34792584 1.0029812 nan
2.3874605 0.34237915 1.0029639 nan
2.394489 0.33988339 1.0030965 nan
2.3775647 0.33011109 1.0028692 nan
2.3776071 0.32550615 1.0028968 nan
2.3666701 0.3176192 1.0027591 nan
2.3647163 0.31244189 1.0027565 nan
2.3697488 0.3093344 1.002859 nan
2.369791 0.30474448 1.0028865 -3.022089e+38
2.4315221 -0.20455387 1.0068876 nan
2.4335656 -0.20908633 1.0069482 -3.1549688e+38
2.4346089 -0.2137063 1.0069926 -3.0224042e+38
2.4346523 -0.2184082 1.0070207 -3.2625513e+38
2.4336953 -0.22318645 1.0070324 -3.3286472e+38
2.4347386 -0.22781201 1.007077 -3.2218399e+38
2.4317813 -0.23273171 1.0070559 -3.3016432e+38
2.4278235 -0.237711 1.0070184 nan
2.4278667 -0.24239984 1.0070465 nan
2.408906 -0.24836178 1.006763 nan
2.4089487 -0.25301516 1.0067908 nan
2.4109917 -0.25754201 1.0068514 nan
2.4090343 -0.26232195 1.0068464 nan
2.406076 -0.26715398 1.0068249 nan
2.4061189 -0.27180177 1.0068526 nan
2.4071617 -0.27639377 1.0068969 nan
2.4092054 -0.28093553 1.0069577 nan
2.4282546 -0.28459942 1.0072987 nan
2.4302988 -0.28918785 1.0073597 nan
2.4323428 -0.29378372 1.0074208 nan
2.4323859 -0.29848003 1.0074488 nan
2.4344299 -0.30308709 1.0075099 nan
2.4364741 -0.30770165 1.0075711 nan
2.4365172 -0.31240541 1.0075992 nan
2.437561 -0.31707016 1.0076439 nan
2.4346027 -0.32188725 1.0076222 nan
2.4346459 -0.32658729 1.0076504 nan
2.4356899 -0.33125389 1.0076951 nan
2.4577451 -0.33526158 1.0080886 nan
2.4587896 -0.33997485 1.0081335 nan
2.4628353 -0.34460837 1.0082284 nan
2.4668815 -0.34925684 1.0083234 nan
2.4649239 -0.35406476 1.0083185 nan
2.4589641 -0.35895413 1.0082469 nan
2.4520028 -0.36384147 1.0081586 nan
2.4320328 -0.36894313 1.007853 nan
2.4290738 -0.37368745 1.0078311 nan
2.4171088 -0.37855345 1.0076586 nan
2.4361653 -0.38297486 1.0080042 nan
2.4181952 -0.38787532 1.0077311 nan
2.4252434 -0.39247948 1.0078762 nan
2.4252865 -0.39716086 1.0079042 nan
2.4173234 -0.40188572 1.007798 nan
2.4163651 -0.40655574 1.007809 nan
2.4174089 -0.41121861 1.0078537 nan
2.3984361 -0.41588196 1.0075624 -2.8872834e+38
2.4004803 -0.42051703 1.0076238 -2.2339922e+38
2.4035256 -0.42516345 1.0077019 -2.4208139e+38
2.3877578 0.44904429 0.99773061 nan
2.3907936 0.44545954 0.99779683 nan
2.3908362 0.4408285 0.99782455 nan
2.3878853 0.43516809 0.99781352 nan
2.3879278 0.43054265 0.99784112 nan
2.3909638 0.42693549 0.99790752 nan
2.3920043 0.42264205 0.99794811 nan
2.3920467 0.41800922 0.99797583 nan
2.388098 0.41204113 0.99795175 nan
2.3881404 0.40741569 0.99797934 nan
2.3881829 0.40279025 0.998007 nan
2.3882256 0.39816481 0.99803466 nan
2.3892658 0.3938657 0.99807525 nan
2.3923025 0.390212 0.99814194 nan
2.3913472 0.38525647 0.99815661 nan
2.3883955 0.37966329 0.99814522 nan
2.3884382 0.37503785 0.99817282 nan
2.391475 0.37136346 0.99823964 nan
2.3915174 0.36673254 0.99826729 nan
2.3875678 0.36084837 0.99824274 nan
2.4055758 0.36183041 0.99850571 nan
2.4026241 0.35624462 0.99849427 nan
2.3886933 0.34728533 0.9983387 nan
2.3857415 0.34174258 0.99832702 nan
2.3887784 0.33803457 0.99839395 nan
2.3718522 0.32827353 0.99819839 nan
2.3679016 0.32247907 0.99817324 nan
2.3809204 0.32177144 0.99837166 nan
2.3809628 0.31716102 0.9983992 nan
2.3700242 0.30930954 0.99828184 -3.3947395e+38
2.3700664 0.30471963 0.99830925 -3.0087957e+38
2.3651175 0.29867524 0.99827069 -2.8219744e+38
2.4298036 -0.20474686 1.0021753 nan
2.4348478 -0.20902982 1.0022757 -3.0755309e+38
2.4348912 -0.21373174 1.0023037 -3.2083904e+38
2.433934 -0.21851182 1.0023173 nan
2.4319768 -0.22336449 1.0023165 nan
2.4350209 -0.22783744 1.002388 -3.3685233e+38
2.4320631 -0.23275711 1.0023726 -3.3949502e+38
2.4281049 -0.23773636 1.0023426 nan
2.4251475 -0.24263176 1.0023271 nan
2.4251904 -0.24731502 1.0023551 nan
2.4252336 -0.25199825 1.002383 nan
2.4252768 -0.2566815 1.002411 nan
2.4063122 -0.26253131 1.0021622 nan
2.4063549 -0.26717913 1.00219 nan
2.4063978 -0.27182692 1.0022178 nan
2.4074407 -0.27641892 1.0022601 nan
2.4074836 -0.28106856 1.0022879 nan
2.4195321 -0.2850934 1.0024912 nan
2.4255781 -0.28946424 1.002607 nan
2.4326246 -0.29380912 1.0027375 nan
2.4316671 -0.29855189 1.0027509 nan
2.4347119 -0.30311251 1.0028229 nan
2.4367564 -0.30772707 1.0028803 nan
2.4367995 -0.31243086 1.0029085 nan
2.4368427 -0.31713462 1.0029366 nan
2.4338844 -0.32194984 1.0029205 nan
2.4339275 -0.326648 1.0029486 nan
2.435972 -0.33127934 1.0030062 nan
2.4360154 -0.33598125 1.0030344 nan
2.4400611 -0.34056443 1.0031214 nan
2.458117 -0.34477314 1.0034155 nan
2.464165 -0.34936041 1.0035325 nan
2.4652092 -0.35409048 1.0035757 nan
2.457247 -0.35902423 1.0034857 nan
2.4502854 -0.36390775 1.0034103 nan
2.4303133 -0.36900547 1.003142 nan
2.4293554 -0.37371281 1.0031552 nan
2.4133854 -0.3786377 1.0029457 nan
2.4344459 -0.38302606 1.0032855 nan
2.4174745 -0.38791159 1.0030608 nan
2.4255242 -0.39250481 1.0032077 nan
2.4435835 -0.39705497 1.0035038 nan
2.4176033 -0.40191096 1.0031445 nan
2.4166451 -0.40658095 1.0031574 nan
2.416688 -0.41124555 1.0031853 nan
2.3987141 -0.41590703 1.0029442 -2.7405991e+38
2.3987565 -0.42053801 1.002972 -2.7269424e+38
2.4088089 -0.42520809 1.0031493 -2.8736781e+38
2.3880353 0.44901937 0.99311799 nan
2.3880777 0.44439393 0.99314564 nan
2.3881202 0.43976849 0.9931733 nan
2.3881629 0.43514317 0.9932009 nan
2.3882053 0.43051773 0.99322855 nan
2.3892457 0.42623168 0.99326724 nan
2.3922822 0.42261702 0.99332809 nan
2.3923249 0.41798419 0.99335575 nan
2.3933656 0.41368508 0.99339455 nan
2.388418 0.40739077 0.99336678 nan
2.3884606 0.40276533 0.99339443 nan
2.3885031 0.39813989 0.99342203 nan
2.3895435 0.39384073 0.99346083 nan
2.3925805 0.39018697 0.99352187 nan
2.3926229 0.38555413 0.99354959 nan
2.3886733 0.37963825 0.9935326 nan
2.3887157 0.37501281 0.99356025 nan
2.3917527 0.37133843 0.99362147 nan
2.3927934 0.36702257 0.99366033 nan
2.3888433 0.36113662 0.99364316 nan
2.3878877 0.3561998 0.99365962 nan
2.4029033 0.35621947 0.99385566 nan
2.38398 0.34572202 0.99366993 nan
2.3840225 0.34110588 0.99369752 nan
2.389056 0.33800966 0.99378139 nan
2.3721278 0.32824868 0.99361742 nan
2.3681767 0.32245427 0.99359977 nan
2.3831935 0.32234323 0.99379653 nan
2.3832359 0.317729 0.99382412 nan
2.3702998 0.30928475 0.99370456 -3.3812397e+38
2.370342 0.30469483 0.99373204 -2.9289363e+38
2.367389 0.29923224 0.99372542 -2.7020822e+38
2.3674312 0.29464787 0.99375284 -2.7689684e+38
2.4341297 -0.20913716 0.99757415 nan
2.4341729 -0.21383719 0.99760222 nan
2.4522223 -0.21712998 0.99785733 nan
2.4512653 -0.22193992 0.99787301 nan
2.4323018 -0.2280862 0.99766123 nan
2.4283433 -0.23307285 0.99763876 nan
2.427386 -0.2378324 0.99765414 nan
2.4214265 -0.24293251 0.99760616 nan
2.4214697 -0.24760829 0.99763405 nan
2.4215126 -0.25228405 0.99766201 nan
2.4065485 -0.25790864 0.99749947 nan
2.4065912 -0.26255643 0.99752724 nan
2.4066339 -0.26720425 0.99755502 nan
2.4066765 -0.27185205 0.99758279 nan
2.4067194 -0.27649984 0.99761057 nan
2.4087629 -0.2810398 0.99766386 nan
2.4108071 -0.28558719 0.99771714 nan
2.4268596 -0.28943935 0.99794942 nan
2.4329064 -0.29383451 0.99805415 nan
2.4129367 -0.29946005 0.99782622 nan
2.4189835 -0.30385149 0.99793094 nan
2.4210277 -0.30843619 0.99798453 nan
2.440084 -0.3123337 0.99825627 nan
2.437125 -0.31716004 0.99824584 nan
2.4351668 -0.3219381 0.99824822 nan
2.43521 -0.32663813 0.99827635 nan
2.4342527 -0.33137158 0.99829155 nan
2.4352965 -0.3360382 0.9983325 nan
2.4383423 -0.34064925 0.99839932 nan
2.4383855 -0.34535486 0.99842745 nan
2.443433 -0.34993082 0.99852014 nan
2.4464788 -0.35457358 0.99858713 nan
2.4375143 -0.35949397 0.99849886 nan
2.4335542 -0.36427912 0.99847513 nan
2.4315956 -0.36901236 0.99847728 nan
2.4306378 -0.37372154 0.99849236 nan
2.4106624 -0.37870711 0.99826056 nan
2.4297228 -0.38311586 0.99853539 nan
