# .PCD v0.7 - Point Cloud Data file format
VERSION 0.7
FIELDS x y z rgb
SIZE 4 4 4 4
TYPE F F F F
COUNT 1 1 1 1
WIDTH 1321
HEIGHT 1
VIEWPOINT 0 0 0 1 0 0 0
POINTS 1321
DATA ascii
1.6070205 -0.34506485 1.2389681 nan
1.6054296 -0.34776258 1.2386477 nan
1.6069134 -0.35087642 1.2388349 nan
1.6083978 -0.35399398 1.239022 nan
1.608857 -0.35697037 1.2390401 nan
1.6312383 0.50103378 1.2564929 nan
1.6317413 0.49777341 1.2565125 nan
1.6274958 0.4927662 1.2557102 nan
1.6374969 0.49299026 1.257374 nan
1.6361006 0.48902929 1.2570649 nan
1.6375551 0.48610723 1.2572491 nan
1.6380591 0.48283952 1.2572689 nan
1.637612 0.4792316 1.2571242 nan
1.6381158 0.47596574 1.257144 nan
1.631958 0.47034454 1.2560123 nan
1.6324598 0.46709156 1.256032 nan
1.6282003 0.46217465 1.2552291 nan
1.6287007 0.45893091 1.2552488 nan
1.6282482 0.45535803 1.2551038 nan
1.6287483 0.45211613 1.2551234 nan
1.6302018 0.44919956 1.2553076 nan
1.6316558 0.44627935 1.2554917 nan
1.6340643 0.44367713 1.2558405 nan
1.6345656 0.44042784 1.2558601 nan
1.6302943 0.43558848 1.2550569 nan
1.630794 0.43234837 1.2550764 nan
1.6303387 0.42879391 1.2549314 nan
1.6308383 0.42555565 1.254951 nan
1.6322935 0.42262805 1.2551352 nan
1.6337492 0.41969681 1.2553195 nan
1.6323367 0.41584098 1.2550097 nan
1.6251842 0.41016179 1.2537119 nan
1.6256814 0.40693831 1.2537315 nan
1.6271358 0.40401626 1.2539155 nan
1.6285907 0.4010905 1.2540998 nan
1.6281308 0.39756554 1.2539546 nan
1.6247966 0.39315665 1.2533152 nan
1.625293 0.38993871 1.2533346 nan
1.6257894 0.38672078 1.2533541 nan
1.6262858 0.38350278 1.2533736 nan
1.6258231 0.3799963 1.2532282 nan
1.6253598 0.37649351 1.253083 nan
1.6239364 0.37270957 1.2527728 nan
1.6244316 0.369499 1.2527921 nan
1.6230065 0.36572611 1.2524819 nan
1.6254221 0.36307785 1.252831 -2.4864354e+38
1.6268783 0.36014467 1.2530153 -2.5665004e+38
1.6273738 0.35693228 1.2530347 -2.886711e+38
1.6278694 0.35371983 1.2530541 -2.8072727e+38
1.6223153 -0.18279588 1.2416446 -1.9414572e+38
1.6157198 -0.18558079 1.2404958 -1.8613902e+38
1.6171981 -0.18865779 1.2406809 -1.8348046e+38
1.634236 -0.20152071 1.2432564 -2.4740335e+38
1.6347091 -0.20458746 1.2432749 -3.0472678e+38
1.6260793 -0.20719704 1.2417921 nan
1.6265498 -0.21024719 1.2418106 nan
1.6209486 -0.21297041 1.2408279 nan
1.6214173 -0.2160095 1.2408463 nan
1.6147981 -0.21864137 1.2396966 nan
1.6152649 -0.22166753 1.2397149 nan
1.6066136 -0.22413695 1.2382312 nan
1.607078 -0.22714651 1.2382493 nan
1.6105833 -0.23035276 1.2387683 nan
1.6140904 -0.23357001 1.2392874 nan
1.6155704 -0.23665991 1.2394725 nan
1.6231385 -0.24017996 1.2406595 nan
1.622592 -0.24314243 1.2405108 nan
1.6220448 -0.24610123 1.2403622 nan
1.6225125 -0.24913293 1.2403805 nan
1.6229801 -0.25216463 1.2403989 nan
1.6234478 -0.25519633 1.2404171 nan
1.6127367 -0.2573244 1.2385983 nan
1.6121846 -0.26025185 1.2384496 nan
1.6055311 -0.26266056 1.2372985 nan
1.6049763 -0.26556957 1.2371495 nan
1.6054382 -0.2685644 1.2371676 nan
1.6099709 -0.27192467 1.237854 nan
1.611452 -0.27502006 1.2380393 nan
1.6139519 -0.27821425 1.2383916 nan
1.6144159 -0.28122196 1.2384098 nan
1.6128422 -0.2840322 1.2380937 nan
1.606172 -0.28633213 1.2369421 nan
1.6066333 -0.2893233 1.2369602 nan
1.6070948 -0.29231444 1.2369783 nan
1.6075561 -0.29530558 1.2369963 nan
1.6171997 -0.29926836 1.238519 nan
1.6176636 -0.3022761 1.2385371 nan
1.6089404 -0.30427897 1.2370505 nan
1.6094017 -0.30727008 1.2370687 nan
1.6098632 -0.31026122 1.2370868 nan
1.6123679 -0.31348673 1.2374393 nan
1.6128298 -0.31648156 1.2374574 nan
1.6204474 -0.32032248 1.2386463 nan
1.6168214 -0.32283932 1.2379954 nan
1.6172842 -0.32583967 1.2380135 nan
1.6177469 -0.32884002 1.2380316 nan
1.619233 -0.33196867 1.2382171 nan
1.6176488 -0.33471063 1.2379006 nan
1.6150396 -0.33731335 1.2374167 nan
1.6062834 -0.33910227 1.235929 nan
1.6077671 -0.34221432 1.2361143 nan
1.6082265 -0.34519252 1.2361324 nan
1.6056106 -0.34775281 1.2356483 nan
1.6070945 -0.35086665 1.2358336 nan
1.608579 -0.35398418 1.236019 nan
1.6080122 -0.35681573 1.2358696 nan
1.608471 -0.35979027 1.2358875 nan
1.6280869 0.50324011 1.2526959 nan
1.6304874 0.50069141 1.2530407 nan
1.6300406 0.4970817 1.2528979 nan
1.6267438 0.49242747 1.2522674 nan
1.6367459 0.49265349 1.2539126 nan
1.6362995 0.48904008 1.2537698 nan
1.6368033 0.48577416 1.2537894 nan
1.637307 0.4825083 1.2538092 nan
1.6378108 0.47924238 1.253829 nan
1.6383146 0.47597647 1.2538487 nan
1.6312042 0.47001886 1.2525675 nan
1.6317058 0.46676767 1.2525871 nan
1.6198266 0.45919037 1.2504925 nan
1.6231824 0.45695597 1.2509999 nan
1.6313044 0.45635593 1.2523208 nan
1.6308521 0.45278132 1.2521777 nan
1.6284922 0.44855946 1.2517092 nan
1.6289921 0.44531941 1.2517289 nan
1.6342622 0.4436878 1.252562 nan
1.6357179 0.44075847 1.2527444 nan
1.637174 0.43782532 1.2529268 nan
1.6300364 0.43204278 1.2516445 nan
1.6276704 0.42786157 1.2511759 nan
1.6291244 0.42494136 1.2513582 nan
1.6286677 0.42139614 1.251215 nan
1.6291664 0.41816342 1.2512345 nan
1.6201015 0.41186106 1.2496259 nan
1.6225106 0.40925705 1.249971 nan
1.6239638 0.40634239 1.2501533 nan
1.626375 0.40372539 1.2504985 nan
1.6268722 0.40050197 1.250518 nan
1.6264117 0.3969807 1.2503746 nan
1.6221185 0.39227951 1.2495797 nan
1.622614 0.38906711 1.2495992 nan
1.624068 0.3861469 1.2497815 nan
1.6245638 0.3829326 1.2498009 nan
1.6250597 0.37971836 1.2498204 nan
1.6255555 0.37650406 1.2498398 nan
1.6241318 0.37272015 1.2495334 nan
1.6236672 0.36922657 1.2493899 nan
1.6241622 0.36601782 1.2494092 nan
1.6256176 0.36308843 1.2495916 -2.4997802e+38
1.6270739 0.36015525 1.249774 -2.6331695e+38
1.6275694 0.35694283 1.2497934 -2.9000542e+38
1.6280649 0.35373041 1.2498128 -2.8470457e+38
1.6354337 -0.20155779 1.2403271 -2.1806393e+38
1.6389407 -0.20477319 1.2408404 -2.7801837e+38
1.6323341 -0.20749176 1.2397044 nan
1.6328064 -0.21055296 1.2397228 nan
1.6241697 -0.21312386 1.2382565 nan
1.6216023 -0.21599948 1.2377799 nan
1.6149824 -0.21863142 1.2366432 nan
1.6154492 -0.22165757 1.2366616 nan
1.6067969 -0.22412705 1.2351946 nan
1.6072611 -0.22713661 1.2352128 nan
1.6107669 -0.23034284 1.2357261 nan
1.6152883 -0.23362744 1.2364047 nan
1.6238694 -0.23720384 1.2377435 nan
1.6202794 -0.23995674 1.2371016 nan
1.6116122 -0.24233034 1.235634 nan
1.6130923 -0.24541837 1.2358173 nan
1.622697 -0.24912295 1.2373216 nan
1.6231647 -0.25215465 1.2373399 nan
1.6236323 -0.25518635 1.2373582 nan
1.61292 -0.25731447 1.2355599 nan
1.6123679 -0.26024196 1.235413 nan
1.6057135 -0.2626507 1.2342749 nan
1.6051586 -0.2655597 1.2341278 nan
1.6056206 -0.26855454 1.2341459 nan
1.6009936 -0.2710925 1.233338 nan
1.6014541 -0.27407813 1.233356 nan
1.6110798 -0.27791917 1.2348611 nan
1.6125617 -0.28101829 1.2350446 nan
1.6120061 -0.2839236 1.2348975 nan
1.6043156 -0.2861211 1.2335935 nan
1.6047765 -0.28910857 1.2336116 nan
1.6052372 -0.29209599 1.2336297 nan
1.6169187 -0.29625073 1.235466 nan
1.6163623 -0.2991505 1.2353189 nan
1.6158054 -0.30204657 1.2351718 nan
1.6081014 -0.30415747 1.2338672 nan
1.6095839 -0.30726022 1.2340506 nan
1.6100452 -0.31025136 1.2340688 nan
1.6115283 -0.31335968 1.2342522 nan
1.61199 -0.31635267 1.2342703 nan
1.6206304 -0.32031259 1.2356114 nan
1.617004 -0.32282946 1.2349681 nan
1.6174668 -0.3258298 1.2349862 nan
1.6179296 -0.32883015 1.2350044 nan
1.6194158 -0.33195877 1.235188 nan
1.6188552 -0.33483088 1.2350407 nan
1.6070296 -0.33624807 1.2330734 nan
1.6064646 -0.33909249 1.2329259 nan
1.6079484 -0.34220451 1.2331094 nan
1.6063579 -0.34490776 1.2327964 nan
1.6057916 -0.34774303 1.2326488 nan
1.6083012 -0.35099801 1.2329979 nan
1.6087602 -0.3539744 1.2330159 nan
1.6081933 -0.35680592 1.2328683 nan
1.6086521 -0.35978046 1.2328863 nan
1.6254379 0.50218606 1.24893 nan
1.6278379 0.49964297 1.2492709 nan
1.6283396 0.49638999 1.2492906 nan
1.6269416 0.49243814 1.2489889 nan
1.6359946 0.49231672 1.2504548 nan
1.6364983 0.48905081 1.2504745 nan
1.6370021 0.48578489 1.2504942 nan
1.6375059 0.48251903 1.250514 nan
1.6380097 0.47925311 1.2505337 nan
1.6385134 0.4759872 1.2505535 nan
1.6304501 0.46969301 1.2491264 nan
1.629047 0.46577442 1.2488245 nan
1.620023 0.45920098 1.2472363 nan
1.6224263 0.45663565 1.2475774 nan
1.630549 0.45603758 1.2488834 nan
1.6310496 0.45279193 1.248903 nan
1.6296431 0.44889551 1.248601 nan
1.6291894 0.44533002 1.2484597 nan
1.6325517 0.44305509 1.2489618 nan
1.6340067 0.44012934 1.2491423 nan
1.6345077 0.4368819 1.249162 nan
1.6340536 0.43331826 1.2490207 nan
1.6250012 0.42692918 1.2474314 nan
1.625499 0.423702 1.2474508 nan
1.6259968 0.42047477 1.2474704 nan
1.6274507 0.41755641 1.2476509 nan
1.6202971 0.41187155 1.2463828 nan
1.62462 0.4098779 1.2470461 nan
1.6241599 0.40635294 1.2469046 nan
1.6265712 0.403736 1.247246 nan
1.6270684 0.40051258 1.2472656 nan
1.6256499 0.39669353 1.246963 nan
1.622314 0.39229012 1.2463385 nan
1.621851 0.38878363 1.2461969 nan
1.6204288 0.38498861 1.2458942 nan
1.6238006 0.38265282 1.2463968 nan
1.6242962 0.37944037 1.2464161 nan
1.6247917 0.37622797 1.2464356 nan
1.6204879 0.37159133 1.2456496 nan
1.6209821 0.36838812 1.245669 nan
1.6262783 0.36659068 1.2464938 nan
1.6267738 0.36337826 1.2465132 -2.5798466e+38
1.6263083 0.35988837 1.2463716 -2.5933446e+38
1.6268035 0.35667777 1.2463911 -2.8334893e+38
1.6282605 0.35374099 1.2465715 -2.7539484e+38
1.6401392 -0.20481202 1.2379019 -2.6872388e+38
1.6335323 -0.20753247 1.2367787 nan
1.6248974 -0.21012184 1.2353293 nan
1.6253673 -0.21316829 1.2353476 nan
1.6238123 -0.21610215 1.2350398 nan
1.6171921 -0.21873772 1.2339162 nan
1.6176596 -0.2217676 1.2339345 nan
1.6079935 -0.224179 1.2323211 nan
1.6074443 -0.22712672 1.2321762 nan
1.6109504 -0.23033291 1.2326839 nan
1.6154722 -0.23361751 1.2333549 nan
1.6230398 -0.23712462 1.2345158 nan
1.6204638 -0.23994675 1.2340444 nan
1.6117957 -0.24232042 1.2325935 nan
1.6142911 -0.24548319 1.2329383 nan
1.6228815 -0.24911296 1.2342627 nan
1.6243651 -0.25222313 1.2344443 nan
1.6248331 -0.25525665 1.2344625 nan
1.6161526 -0.25755098 1.2330112 nan
1.6054337 -0.25964418 1.2312332 nan
1.606913 -0.26272663 1.2314146 nan
1.6063582 -0.26563752 1.2312695 nan
1.6058029 -0.26854467 1.2311242 nan
1.6011753 -0.2710827 1.2303256 nan
1.6016358 -0.27406833 1.2303436 nan
1.6020964 -0.27705392 1.2303617 nan
1.6117257 -0.28091151 1.2318501 nan
1.6121888 -0.28391373 1.2318683 nan
1.6075553 -0.28641301 1.2310694 nan
1.608017 -0.28940597 1.2310876 nan
1.6074589 -0.29229474 1.2309422 nan
1.6171018 -0.29624084 1.2324312 nan
1.6175658 -0.29924858 1.2324494 nan
1.6149675 -0.30192691 1.2319772 nan
1.6072625 -0.30403596 1.2306876 nan
1.6097659 -0.30725038 1.2310326 nan
1.6102273 -0.31024152 1.2310507 nan
1.6117104 -0.31334981 1.2312324 nan
1.6121721 -0.3163428 1.2312504 nan
1.6208135 -0.3203027 1.2325767 nan
1.6171867 -0.32281959 1.2319407 nan
1.6176494 -0.32581994 1.2319589 nan
1.6181123 -0.32882029 1.2319771 nan
1.6195985 -0.33194891 1.2321588 nan
1.6200616 -0.3349511 1.2321769 nan
1.6113074 -0.33676597 1.2307227 nan
1.611768 -0.33975157 1.2307408 nan
1.6122285 -0.34273717 1.2307588 nan
1.602439 -0.34434819 1.2291406 nan
1.6008462 -0.34703672 1.2288313 nan
1.6023288 -0.35014135 1.2290128 nan
1.6017604 -0.35296369 1.2288671 nan
1.6022176 -0.35592714 1.2288851 nan
1.6256356 0.50219679 1.2456515 nan
1.6261369 0.49894744 1.245671 nan
1.6266381 0.49569815 1.2456907 nan
1.6261894 0.49209946 1.2455516 -3.3937996e+38
1.6361933 0.49232745 1.2471595 nan
1.6347959 0.48837018 1.2468616 nan
1.6352992 0.4851079 1.2468812 nan
1.6358024 0.48184574 1.246901 nan
1.6353543 0.47824335 1.2467618 nan
1.6377606 0.47565961 1.2470994 nan
1.6392161 0.47273207 1.247278 nan
1.6311492 0.46645439 1.2458675 nan
1.6316504 0.46320504 1.2458872 nan
1.6302459 0.45929384 1.245589 nan
1.6307466 0.45604825 1.2456086 nan
1.6312473 0.45280266 1.2456282 nan
1.6317478 0.44955701 1.2456478 nan
1.6322485 0.44631135 1.2456675 nan
1.6317949 0.44274402 1.2455281 nan
1.635159 0.44045991 1.2460247 nan
1.6356602 0.43721056 1.2460444 nan
1.6285203 0.43143171 1.2447917 nan
1.6271085 0.42756844 1.2444932 nan
1.6285626 0.42465013 1.2446718 nan
1.6290613 0.42141742 1.2446914 nan
1.6305161 0.41849351 1.2448701 nan
1.6262321 0.41372406 1.2440941 nan
1.6276866 0.41080391 1.2442728 nan
1.6272273 0.40727341 1.2441332 nan
1.62581 0.40344518 1.2438345 nan
1.6253493 0.39992392 1.2436948 nan
1.62393 0.39610857 1.243396 nan
1.6215512 0.39200473 1.242938 nan
1.6220465 0.38879418 1.2429575 nan
1.6225417 0.38558358 1.2429769 nan
1.6220779 0.38208264 1.2428371 nan
1.6235322 0.37916243 1.2430156 nan
1.6230679 0.37566519 1.2428759 nan
1.6216428 0.37188673 1.2425768 nan
1.6221372 0.36868167 1.2425963 nan
1.6264739 0.36660123 1.2432525 nan
1.6269695 0.36338884 1.2432721 -2.6065874e+38
1.627465 0.36017638 1.2432914 -2.5131236e+38
1.6279604 0.35696396 1.2433109 -2.8066452e+38
1.6274942 0.35347778 1.243171 -2.7408644e+38
1.6260656 0.34972331 1.2428718 -2.794294e+38
1.6403265 -0.20480189 1.2347983 -2.6606994e+38
1.6337187 -0.20752239 1.2336881 nan
1.6250829 -0.21011183 1.2322555 nan
1.6255528 -0.21315828 1.2322738 nan
1.6239974 -0.21609214 1.2319697 nan
1.6244669 -0.2191349 1.2319882 nan
1.6198703 -0.22187766 1.2312 nan
1.6091901 -0.22423092 1.229444 nan
1.6086414 -0.22718048 1.2293009 nan
1.6111339 -0.23032299 1.2296417 nan
1.6237707 -0.23414662 1.231596 nan
1.6232246 -0.23711464 1.2314532 nan
1.6216631 -0.24000794 1.2311487 nan
1.6129943 -0.24238342 1.2297146 nan
1.6154903 -0.24554801 1.2300557 nan
1.6240819 -0.2491796 1.2313651 nan
1.6245497 -0.25221318 1.2313834 nan
1.6158708 -0.25452414 1.229949 nan
1.6153198 -0.25745896 1.2298058 nan
1.6056161 -0.25963432 1.2282096 nan
1.6081128 -0.26280263 1.2285507 nan
1.607558 -0.2657153 1.2284073 nan
1.6070029 -0.26862434 1.228264 nan
1.6003391 -0.27098155 1.2271516 nan
1.6007993 -0.2739653 1.2271698 nan
1.6022781 -0.27704409 1.2273493 nan
1.6119084 -0.28090164 1.228821 nan
1.6123716 -0.28390387 1.2288392 nan
1.6077374 -0.28640318 1.2280495 nan
1.6081991 -0.28939614 1.2280676 nan
1.607641 -0.29228491 1.2279242 nan
1.6081024 -0.29527605 1.2279423 nan
1.6085638 -0.29826716 1.2279603 nan
1.6080042 -0.30114847 1.2278169 nan
1.6084653 -0.3041378 1.2278349 nan
1.609948 -0.30724055 1.2280147 nan
1.6104094 -0.31023169 1.2280327 nan
1.6129148 -0.31345716 1.2283741 nan
1.6133767 -0.316452 1.2283922 nan
1.6209966 -0.3202928 1.229542 nan
1.6173693 -0.32280973 1.2289135 nan
1.6178321 -0.32581007 1.2289317 nan
1.618295 -0.32881042 1.2289498 nan
1.6197814 -0.33193904 1.2291296 nan
1.6202444 -0.33494124 1.2291478 nan
1.6114892 -0.33675614 1.2277102 nan
1.6119497 -0.33974174 1.2277284 nan
1.6124102 -0.34272733 1.2277464 nan
1.6026196 -0.34433845 1.2261468 nan
1.600001 -0.34688768 1.2256794 nan
1.6025093 -0.3501316 1.2260209 nan
1.6019408 -0.35295394 1.225877 nan
1.6023979 -0.35591739 1.2258949 nan
1.6258335 0.50220746 1.242373 -3.3937485e+38
1.6263347 0.49895811 1.2423925 nan
1.6258861 0.49535763 1.2422552 nan
1.6244868 0.49141133 1.241961 nan
1.6363921 0.49233818 1.2438643 nan
1.6349945 0.48838091 1.2435701 nan
1.6354977 0.48511863 1.2435898 nan
1.6340984 0.48117244 1.2432954 nan
1.6355528 0.47825408 1.2434722 nan
1.6379594 0.47567034 1.243806 nan
1.6394148 0.4727428 1.2439828 nan
1.6313469 0.46646512 1.242589 nan
1.6318482 0.46321571 1.2426087 nan
1.6323494 0.45996642 1.2426283 nan
1.6328506 0.45671713 1.242648 nan
1.6343055 0.45379514 1.2428247 nan
1.6338531 0.4502185 1.2426872 nan
1.6334002 0.44664562 1.2425498 nan
1.6319923 0.44275469 1.2422552 nan
1.6353568 0.44047058 1.2427462 nan
1.636813 0.43753934 1.242923 nan
1.6296725 0.43175852 1.2416854 nan
1.6273052 0.42757905 1.2412333 nan
1.6287594 0.4246608 1.2414101 nan
1.629258 0.42142808 1.2414297 nan
1.6316695 0.41881299 1.2417636 nan
1.6273853 0.4140417 1.2409971 nan
1.6278831 0.41081452 1.2410166 nan
1.6283809 0.40758729 1.2410362 nan
1.6279211 0.40405869 1.2408984 nan
1.626503 0.4002341 1.2406034 nan
1.6250838 0.39641702 1.2403083 nan
1.6236634 0.39260715 1.2400131 nan
1.625118 0.38968694 1.2401899 nan
1.624655 0.38617861 1.240052 nan
1.6251508 0.38296431 1.2400715 nan
1.6227683 0.37888443 1.239619 nan
1.6223034 0.37538901 1.239481 nan
1.621838 0.37189725 1.239343 nan
1.6223323 0.36869222 1.2393625 nan
1.6266694 0.36661184 1.2400113 nan
1.627165 0.36339939 1.2400308 -2.6466206e+38
1.6276605 0.36018696 1.2400501 -2.5930331e+38
1.6281561 0.35697454 1.2400696 -2.8599725e+38
1.6276897 0.35348833 1.2399316 -2.7941885e+38
1.6252987 0.34946191 1.2394787 -2.8208773e+38
1.6430731 -0.20185706 1.2321541 nan
1.6364673 -0.20459607 1.2310572 -2.4743451e+38
1.6308695 -0.20735997 1.2301195 -3.2596317e+38
1.6232439 -0.20999655 1.2288628 nan
1.6247258 -0.21309382 1.2290406 nan
1.6251954 -0.21613845 1.229059 nan
1.615535 -0.21860155 1.2274833 nan
1.6180284 -0.22174767 1.2278204 nan
1.6184958 -0.22477752 1.2278386 nan
1.6088247 -0.22717059 1.2262625 nan
1.6113175 -0.23031306 1.2265996 nan
1.6239556 -0.23413661 1.2285316 nan
1.6305125 -0.23758912 1.229507 nan
1.6218476 -0.23999795 1.2280898 nan
1.6060708 -0.24186316 1.2255559 nan
1.6075495 -0.24494013 1.2257335 nan
1.6151237 -0.24848029 1.2268685 nan
1.6155891 -0.25149724 1.2268867 nan
1.6160545 -0.25451422 1.226905 nan
1.6083864 -0.25687417 1.2256466 nan
1.6068155 -0.2597084 1.2253456 nan
1.6062608 -0.26262113 1.2252042 nan
1.6036705 -0.26535484 1.2247435 nan
1.6051495 -0.26843548 1.2249212 nan
1.6076475 -0.27161112 1.2252586 nan
1.6101468 -0.27479416 1.225596 nan
1.6106095 -0.27779454 1.2256141 nan
1.6110724 -0.28079489 1.2256322 nan
1.6125543 -0.28389397 1.2258101 nan
1.6079197 -0.28639334 1.2250297 nan
1.6094013 -0.28948873 1.2252076 nan
1.607823 -0.29227507 1.2249062 nan
1.6082845 -0.29526621 1.2249243 nan
1.6087459 -0.29825732 1.2249424 nan
1.6092073 -0.30124846 1.2249606 nan
1.6096687 -0.3042396 1.2249786 nan
1.6101301 -0.30723071 1.2249967 nan
1.6105915 -0.31022185 1.2250147 nan
1.6141192 -0.31356445 1.2255121 nan
1.6145815 -0.31656113 1.2255303 nan
1.6222024 -0.32040372 1.226667 nan
1.6195978 -0.32304522 1.2262058 nan
1.6190379 -0.32592475 1.2260642 nan
1.619501 -0.32892692 1.2260823 nan
1.6199641 -0.33192915 1.2261004 nan
1.6204271 -0.33493134 1.2261186 nan
1.6116709 -0.33674634 1.2246978 nan
1.6121315 -0.33973193 1.2247159 nan
1.611567 -0.34258193 1.2245741 nan
1.6017749 -0.34419122 1.2229931 nan
1.6012069 -0.34701723 1.2228512 nan
1.6026897 -0.35012186 1.2230289 nan
1.6041733 -0.35323015 1.2232068 nan
1.6107893 -0.35706624 1.2241845 nan
1.604062 -0.35901782 1.2230828 nan
1.6260313 0.50221813 1.2390945 -3.3537149e+38
1.6265324 0.49896884 1.239114 -3.3804037e+38
1.6222839 0.4939633 1.2383583 nan
1.6218334 0.49037385 1.2382228 nan
1.6308879 0.49026358 1.2396383 nan
1.6389965 0.48977447 1.2408991 nan
1.6385497 0.48616099 1.2407637 nan
1.6390538 0.48289323 1.2407835 nan
1.6319445 0.47690409 1.2395619 nan
1.637206 0.47534275 1.2403574 nan
1.6396136 0.47275352 1.2406875 nan
1.6315447 0.46647578 1.2393105 nan
1.632046 0.46322644 1.2393302 nan
1.6325473 0.45997715 1.2393498 nan
1.634002 0.457057 1.2395247 nan
1.6335497 0.45347857 1.2393892 nan
1.6340508 0.45022917 1.2394087 nan
1.6316894 0.44600916 1.2389627 nan
1.6321899 0.44276536 1.2389822 nan
1.6336451 0.43984151 1.2391572 nan
1.6370109 0.43755007 1.2396426 nan
1.6375124 0.43429893 1.2396623 nan
1.6275018 0.42758971 1.2379736 nan
1.6280001 0.42435884 1.237993 nan
1.6265861 0.42050666 1.2377019 nan
1.6280404 0.41758829 1.2378768 nan
1.6323657 0.41558719 1.2385178 nan
1.6271224 0.41051996 1.2376051 nan
1.6285774 0.4075979 1.23778 nan
1.6271598 0.40376782 1.2374887 nan
1.6257412 0.39994514 1.2371974 nan
1.6252798 0.39642757 1.2370615 nan
1.623859 0.3926177 1.23677 nan
1.6253138 0.38969755 1.2369449 nan
1.6258099 0.3864814 1.2369643 nan
1.6253465 0.38297492 1.2368283 nan
1.6239231 0.37918353 1.2365369 nan
1.6224985 0.37539956 1.2362453 nan
1.6210729 0.37162295 1.2359537 nan
1.6225275 0.36870277 1.2361286 nan
1.626865 0.36662239 1.23677 nan
1.6273605 0.36340997 1.2367895 -2.6198807e+38
1.627856 0.36019754 1.2368089 -2.6734098e+38
1.6264284 0.35643384 1.2365172 -2.8602828e+38
1.6249994 0.35267749 1.2362255 -2.7805352e+38
1.6245316 0.34920049 1.2360892 -2.9138752e+38
1.6250257 0.34599727 1.2361087 -2.8077447e+38
1.6452835 -0.2019411 1.22936 nan
1.6376659 -0.20463488 1.2281185 -2.4743449e+38
1.6330795 -0.20745146 1.2273495 -3.1664815e+38
1.6254537 -0.2100918 1.2261078 nan
1.6269363 -0.2131927 1.2262838 nan
1.6253808 -0.21612844 1.2259871 nan
1.6157192 -0.2185916 1.2244298 nan
1.616186 -0.22161776 1.2244482 nan
1.6166528 -0.22464395 1.2244664 nan
1.6171197 -0.2276701 1.2244847 nan
1.619615 -0.23082727 1.2248182 nan
1.6200824 -0.23385715 1.2248366 nan
1.6276535 -0.23737153 1.2259583 nan
1.6220323 -0.23998797 1.2250309 nan
1.6062535 -0.2418533 1.2225267 nan
1.6067166 -0.24485552 1.2225449 nan
1.6153075 -0.24847037 1.2238245 nan
1.6157728 -0.25148731 1.2238426 nan
1.608106 -0.25386211 1.2225993 nan
1.6085691 -0.25686431 1.2226175 nan
1.6069981 -0.25969854 1.2223202 nan
1.6074606 -0.26269704 1.2223383 nan
1.6058878 -0.2655203 1.222041 nan
1.6063498 -0.26851514 1.222059 nan
1.6088482 -0.2716926 1.2223927 nan
1.6103294 -0.27478427 1.2225686 nan
1.6107922 -0.27778465 1.2225868 nan
1.611255 -0.28078499 1.2226049 nan
1.6127371 -0.28388411 1.2227808 nan
1.6172789 -0.28728852 1.2234303 nan
1.6177431 -0.29029807 1.2234485 nan
1.6171871 -0.29320341 1.2233088 nan
1.6084665 -0.29525638 1.2219063 nan
1.608928 -0.29824749 1.2219244 nan
1.6093893 -0.30123863 1.2219424 nan
1.6098508 -0.30422977 1.2219605 nan
1.6103121 -0.30722088 1.2219787 nan
1.6107736 -0.31021202 1.2219968 nan
1.6143016 -0.31355458 1.2224886 nan
1.6147639 -0.31655127 1.2225068 nan
1.6234084 -0.32051471 1.2237884 nan
1.6197807 -0.32303533 1.2231748 nan
1.620244 -0.32603937 1.2231929 nan
1.6196837 -0.32891706 1.2230531 nan
1.6201469 -0.33191928 1.2230713 nan
1.6206099 -0.33492148 1.2230895 nan
1.6118526 -0.3367365 1.2216854 nan
1.6112884 -0.33958837 1.2215455 nan
1.6117487 -0.34257212 1.2215636 nan
1.6029809 -0.34431893 1.2201592 nan
1.6024128 -0.34714675 1.2200191 nan
1.6028702 -0.35011208 1.220037 nan
1.6033276 -0.35307738 1.220055 nan
1.6089176 -0.35676679 1.2208633 nan
1.6032159 -0.35886139 1.2199327 nan
1.626229 0.50222886 1.235816 -3.3670082e+38
1.6267303 0.49897951 1.2358356 -3.3670082e+38
1.621531 0.49362266 1.2349359 -3.3936441e+38
1.6220306 0.49038446 1.2349554 nan
1.631086 0.49027431 1.2363544 nan
1.6296862 0.48632807 1.2360674 nan
1.6301877 0.48307693 1.2360871 nan
1.6306893 0.47982574 1.2361068 nan
1.6321425 0.47691476 1.2362797 nan
1.6374046 0.47535348 1.2370659 nan
1.6379077 0.4720912 1.2370856 nan
1.6298373 0.46581715 1.2357254 nan
1.630338 0.4625715 1.235745 nan
1.632745 0.45998782 1.2360713 nan
1.6341999 0.45706773 1.2362443 nan
1.6337475 0.45348918 1.2361107 nan
1.6332947 0.44991446 1.2359769 nan
1.631887 0.44601977 1.2356898 -3.3936954e+38
1.6323873 0.44277602 1.2357094 nan
1.6338426 0.43985218 1.2358824 nan
1.6362536 0.43724263 1.2362089 nan
1.6367549 0.43399334 1.2362285 nan
1.6267427 0.42728597 1.2345603 nan
1.6281968 0.42436945 1.2347332 nan
1.627739 0.42082793 1.2345992 nan
1.6272804 0.41729009 1.2344652 nan
1.6287351 0.41436988 1.2346383 nan
1.6234901 0.40930998 1.2337368 nan
1.6259013 0.40669858 1.2340633 nan
1.6244829 0.40287405 1.2337756 nan
1.6240212 0.39935648 1.2336416 nan
1.6245173 0.39614034 1.2336611 nan
1.6230962 0.39233238 1.2333734 nan
1.6255095 0.3897081 1.2336999 nan
1.6250464 0.38619971 1.2335658 nan
1.6255422 0.38298547 1.2335852 nan
1.6231589 0.37890553 1.2331438 nan
1.6217338 0.37512338 1.232856 nan
1.6222281 0.37191835 1.2328753 nan
1.6150378 0.36644918 1.2316656 nan
1.6184125 0.36410236 1.2321459 nan
1.6275561 0.36342055 1.2335482 -2.6199332e+38
1.6280516 0.36020809 1.2335676 -2.6198772e+38
1.6275853 0.35672003 1.2334332 -2.8333346e+38
1.6251945 0.35268804 1.2329917 -2.6872826e+38
1.6247267 0.34921104 1.2328573 -2.6739901e+38
1.6252208 0.34600782 1.2328767 -2.6207169e+38
1.6474943 -0.20202506 1.2265584 nan
1.6388646 -0.20467368 1.2251762 -2.4345201e+38
1.6322539 -0.20739064 1.2241051 -3.0868842e+38
1.6246268 -0.21002918 1.2228782 nan
1.6250964 -0.21307379 1.2228967 nan
1.6235402 -0.21600577 1.2226038 nan
1.6229961 -0.2189886 1.2224665 nan
1.6163702 -0.2216078 1.2213948 nan
1.616837 -0.22463399 1.2214131 nan
1.6091913 -0.22715077 1.2201855 nan
1.6086414 -0.23009667 1.220048 nan
1.6020031 -0.23263472 1.2189758 nan
1.6024654 -0.23563141 1.2189939 nan
1.6059732 -0.23884121 1.2194794 nan
1.6064364 -0.2418434 1.2194976 nan
1.6068994 -0.24484563 1.2195157 nan
1.6073625 -0.24784783 1.2195339 nan
1.6078256 -0.25084999 1.219552 nan
1.6082888 -0.25385222 1.2195702 nan
1.6087519 -0.25685441 1.2195883 nan
1.6112494 -0.26002452 1.2199183 nan
1.6086607 -0.26277301 1.2194688 nan
1.6070879 -0.26559806 1.2191751 nan
1.6085682 -0.26868424 1.2193491 nan
1.6100491 -0.27177405 1.2195232 nan
1.610512 -0.2747744 1.2195413 nan
1.6109748 -0.27777478 1.2195594 nan
1.6114377 -0.28077513 1.2195776 nan
1.6119004 -0.28377551 1.2195958 nan
1.617462 -0.28727862 1.2203937 nan
1.6169063 -0.29018581 1.2202559 nan
1.6173702 -0.29319352 1.2202741 nan
1.6086487 -0.29524651 1.2188883 nan
1.60911 -0.29823762 1.2189064 nan
1.6095715 -0.30122876 1.2189245 nan
1.6100328 -0.3042199 1.2189426 nan
1.6104943 -0.30721101 1.2189606 nan
1.6109556 -0.31020215 1.2189788 nan
1.614484 -0.31354472 1.219465 nan
1.6149462 -0.3165414 1.2194831 nan
1.6235918 -0.32050478 1.2207499 nan
1.6199635 -0.32302547 1.2201438 nan
1.6204269 -0.32602951 1.2201619 nan
1.6198665 -0.32890716 1.220024 nan
1.6193057 -0.33178115 1.2198861 nan
1.6197685 -0.33478153 1.2199042 nan
1.6120344 -0.33672667 1.218673 nan
1.6124949 -0.33971226 1.2186911 nan
1.6129555 -0.34269786 1.2187092 nan
1.6041869 -0.34444654 1.2173216 nan
1.6046449 -0.34741557 1.2173395 nan
1.6030508 -0.35010234 1.2170451 nan
1.6096662 -0.35392544 1.2180003 nan
1.6070454 -0.3564674 1.2175496 nan
1.6013424 -0.35855833 1.2166301 nan
1.6264268 0.50223953 1.2325375 -3.3936956e+38
1.6240784 0.49793088 1.2321031 -3.3803512e+38
1.6217282 0.49363339 1.2316685 nan
1.6222277 0.49039513 1.2316881 nan
1.6312841 0.49028504 1.2330703 nan
1.6298841 0.48633873 1.2327871 nan
1.6303856 0.4830876 1.2328067 nan
1.6308872 0.47983646 1.2328265 nan
1.6313887 0.47658527 1.232846 nan
1.6337945 0.47401083 1.2331686 nan
1.6371541 0.47176552 1.2336427 nan
1.6300349 0.46582782 1.2324506 nan
1.6305356 0.46258223 1.2324703 nan
1.6329428 0.45999849 1.2327929 nan
1.6343977 0.4570784 1.232964 nan
1.6358532 0.45415449 1.2331352 nan
1.6354008 0.45057607 1.2330034 nan
1.6330389 0.44635409 1.2325684 nan
1.6325848 0.44278669 1.2324364 -3.3936956e+38
1.6359502 0.44050264 1.2329108 nan
1.6364514 0.43725336 1.2329304 nan
1.6369526 0.43400407 1.23295 nan
1.6269393 0.42729658 1.2313021 nan
1.6274374 0.42406756 1.2313217 nan
1.6279354 0.42083853 1.2313412 nan
1.6293902 0.41791832 1.2315123 nan
1.6298887 0.41468751 1.2315319 nan
1.6217712 0.40871024 1.2301866 nan
1.6213096 0.40519267 1.2300544 nan
1.6227629 0.40228164 1.2302254 nan
1.6223007 0.39876783 1.2300932 nan
1.6227963 0.39555538 1.2301127 nan
1.6213744 0.39175105 1.2298287 nan
1.6218693 0.38854235 1.2298481 nan
1.6204456 0.38474905 1.2295641 nan
1.6209401 0.38154405 1.2295835 nan
1.6223943 0.37862754 1.2297546 nan
1.6228889 0.37542066 1.2297739 nan
1.6243442 0.37249863 1.2299451 nan
1.6161927 0.36674267 1.2285985 nan
1.618607 0.36411285 1.2289213 nan
1.6277516 0.3634311 1.2303069 -2.5666077e+38
1.6282471 0.36021864 1.2303263 -2.5668639e+38
1.6287427 0.35700625 1.2303457 -2.7536833e+38
1.627314 0.35324621 1.2300615 -2.5279306e+38
1.6249217 0.34922159 1.2296253 -2.2610425e+38
1.6254158 0.34601837 1.2296448 -2.3008688e+38
1.6395893 -0.20163837 1.2222116 nan
1.6299443 -0.20422342 1.2206923 -2.4610526e+38
1.6294035 -0.2072283 1.220557 -3.1532415e+38
1.6217747 -0.20986137 1.2193449 nan
1.6222435 -0.21290043 1.2193632 nan
1.6156209 -0.21554551 1.2183049 nan
1.6160877 -0.21857169 1.2183231 nan
1.6165544 -0.22159785 1.2183415 nan
1.6089101 -0.22412947 1.2171288 nan
1.6083603 -0.22707722 1.2169931 nan
1.6017232 -0.22962824 1.2159342 nan
1.6021855 -0.23262489 1.2159523 nan
1.6016327 -0.2355524 1.2158165 nan
1.606156 -0.23883134 1.2164502 nan
1.6066191 -0.24183354 1.2164683 nan
1.6070821 -0.24483576 1.2164866 nan
1.6075453 -0.24783796 1.2165047 nan
1.6080084 -0.25084013 1.2165228 nan
1.6084715 -0.25384235 1.2165411 nan
1.6099517 -0.25692663 1.2167132 nan
1.6124498 -0.26009861 1.2170393 nan
1.6129137 -0.26310632 1.2170575 nan
1.611342 -0.26593876 1.2167675 nan
1.609769 -0.26876384 1.2164778 nan
1.6102319 -0.27176419 1.2164959 nan
1.6106946 -0.27476454 1.216514 nan
1.6111575 -0.27776492 1.2165321 nan
1.6126394 -0.28086212 1.2167044 nan
1.6120831 -0.28376564 1.2165685 nan
1.6176453 -0.28726873 1.217357 nan
1.6170894 -0.29017591 1.2172211 nan
1.6175534 -0.29318362 1.2172394 nan
1.6088307 -0.29523668 1.2158704 nan
1.6092921 -0.29822779 1.2158885 nan
1.6097535 -0.30121893 1.2159065 nan
1.6102149 -0.30421007 1.2159246 nan
1.6106763 -0.30720118 1.2159426 nan
1.6039826 -0.30938524 1.2148814 nan
1.6064869 -0.31259778 1.2152078 nan
1.6151286 -0.31653157 1.2164595 nan
1.621729 -0.32025322 1.2174029 nan
1.619123 -0.32289293 1.2169585 nan
1.6185627 -0.32577059 1.2168224 nan
1.6190255 -0.32877094 1.2168405 nan
1.6194884 -0.33177128 1.2168586 nan
1.6199511 -0.33477166 1.2168769 nan
1.6122161 -0.33671686 1.2156607 nan
1.6126767 -0.33970246 1.2156787 nan
1.6131372 -0.34268805 1.2156968 nan
1.6043676 -0.34443676 1.2143259 nan
1.6048256 -0.34740579 1.2143439 nan
1.6052836 -0.35037479 1.2143618 nan
1.6119002 -0.35420159 1.2153059 nan
1.6103065 -0.35689202 1.2150152 nan
1.6107656 -0.35986841 1.2150332 nan
1.6209263 0.50012046 1.2283621 nan
1.6195258 0.496176 1.2280827 nan
1.6200247 0.4929415 1.2281022 nan
1.6195732 0.48935753 1.2279723 nan
1.6295805 0.4896006 1.2294871 nan
1.630082 0.48634946 1.2295067 nan
1.6305835 0.48309827 1.2295264 nan
1.631085 0.47984713 1.2295461 nan
1.6315866 0.476596 1.2295657 nan
1.6330403 0.47368324 1.2297349 nan
1.6363999 0.47143972 1.2302034 nan
1.6397611 0.46918517 1.2306719 nan
1.6393114 0.46558827 1.2305421 nan
1.6312338 0.45934725 1.2292151 nan
1.6355493 0.4574182 1.2298334 nan
1.6370051 0.45449245 1.2300026 nan
1.6384615 0.45156312 1.2301719 nan
1.6370547 0.44765925 1.2298923 nan
1.6366017 0.44408447 1.2297623 nan
1.6351929 0.44019341 1.2294825 nan
1.6366493 0.43726403 1.2296519 nan
1.6371504 0.43401474 1.2296715 nan
1.6271359 0.42730725 1.2280442 nan
1.6276339 0.42407823 1.2280637 nan
1.6290885 0.42115986 1.228233 nan
1.6295869 0.41792899 1.2282524 nan
1.6329567 0.41561913 1.2287214 nan
1.6248392 0.40963626 1.2273928 nan
1.6272513 0.40702313 1.2277119 nan
1.6277485 0.40379965 1.2277315 nan
1.6263293 0.39997685 1.2274512 nan
1.6277845 0.39705491 1.2276206 nan
1.6225284 0.39205754 1.226741 nan
1.6230236 0.38884699 1.2267604 nan
1.6254377 0.38622093 1.2270795 nan
1.6268933 0.38329709 1.2272488 nan
1.6254694 0.37950379 1.2269685 nan
1.6250046 0.37600467 1.226838 nan
1.6264606 0.37307894 1.2270074 nan
1.6259952 0.36958349 1.2268769 nan
1.6274517 0.3666541 1.2270463 nan
1.6279472 0.36344165 1.2270656 -2.5265224e+38
1.6284428 0.36022922 1.2270851 -2.4999871e+38
1.6289383 0.3570168 1.2271044 -2.7668206e+38
1.6275094 0.35325676 1.2268239 -2.3946948e+38
1.6251166 0.34923214 1.2263933 -1.8344387e+38
1.6256107 0.34602892 1.2264128 -1.8477348e+38
1.6301991 -0.19814718 1.2177241 nan
1.6296591 -0.20115766 1.2175907 nan
1.6291183 -0.20416439 1.2174573 -2.4344159e+38
1.621491 -0.20681226 1.2162602 -3.1400533e+38
1.6219597 -0.20985135 1.2162786 nan
1.6224285 -0.21289042 1.2162969 nan
1.615805 -0.21553555 1.2152514 nan
1.6162719 -0.21856174 1.2152698 nan
1.6167387 -0.2215879 1.215288 nan
1.6121353 -0.22430497 1.2145463 nan
1.6156436 -0.2275129 1.2150207 nan
1.6069787 -0.22994587 1.2136707 nan
1.6023679 -0.23261502 1.2129287 nan
1.607906 -0.23595765 1.213707 nan
1.6093851 -0.23903456 1.2138772 nan
1.6098491 -0.2420423 1.2138954 nan
1.608281 -0.24490061 1.2136095 nan
1.607728 -0.2478281 1.2134756 nan
1.6081911 -0.25083026 1.2134937 nan
1.6086543 -0.25383249 1.2135118 nan
1.6121689 -0.25708094 1.2139864 nan
1.6126329 -0.26008871 1.2140045 nan
1.6130968 -0.26309642 1.2140228 nan
1.6135608 -0.26610416 1.214041 nan
1.6109698 -0.26884347 1.2136025 nan
1.6104145 -0.27175432 1.2134686 nan
1.6108773 -0.27475467 1.2134867 nan
1.6113402 -0.27775505 1.2135048 nan
1.6128223 -0.28085226 1.2136753 nan
1.6122658 -0.28375578 1.2135412 nan
1.6168085 -0.28715828 1.2141682 nan
1.6172725 -0.29016602 1.2141864 nan
1.6177365 -0.29317373 1.2142045 nan
1.6100335 -0.29533288 1.2130046 nan
1.6104952 -0.29832584 1.2130227 nan
1.6119784 -0.30142862 1.2131931 nan
1.6144837 -0.30464661 1.2135158 nan
1.6149462 -0.30764514 1.2135339 nan
1.6082529 -0.3098366 1.2124858 nan
1.6066684 -0.31258798 1.2121991 nan
1.615311 -0.3165217 1.213436 nan
1.6239585 -0.32048497 1.214673 nan
1.6203293 -0.32300571 1.2140818 nan
1.6115794 -0.32488912 1.2127284 nan
1.6099923 -0.32762387 1.2124417 nan
1.6104525 -0.33060762 1.2124598 nan
1.6109128 -0.3335914 1.2124778 nan
1.6113731 -0.33657515 1.2124958 nan
1.6118333 -0.3395589 1.2125139 nan
1.6122936 -0.34254265 1.2125319 nan
1.6127539 -0.34552643 1.2125499 nan
1.6060324 -0.34753531 1.2115006 nan
1.6054643 -0.35036501 1.2113662 nan
1.6038692 -0.35304812 1.2110791 nan
1.602273 -0.35572386 1.2107921 nan
1.6027299 -0.35868546 1.2108099 nan
1.6277725 0.50261593 1.2261281 nan
1.6197227 0.49618667 1.2248191 -3.3936958e+38
1.6202216 0.49295211 1.2248386 nan
1.6292769 0.49286246 1.2261871 nan
1.6383373 0.4927395 1.2275357 nan
1.6388413 0.48947173 1.2275555 nan
1.6393454 0.48620403 1.2275753 nan
1.6398494 0.48293626 1.2275951 nan
1.6403536 0.4796685 1.2276148 nan
1.6418099 0.47673917 1.2277822 nan
1.6356455 0.47111392 1.2267679 nan
1.6390067 0.46886122 1.2272308 nan
1.63951 0.465599 1.2272506 nan
1.6314313 0.45935798 1.2259403 nan
1.6347935 0.4570998 1.2264032 nan
1.6381574 0.45483053 1.2268662 nan
1.6386597 0.45157385 1.226886 nan
1.6382074 0.44799352 1.2267579 nan
1.6387095 0.44473863 1.2267776 nan
1.6315696 0.43892443 1.2256145 nan
1.6311138 0.43536627 1.2254863 nan
1.6306577 0.43181181 1.225358 nan
1.6282885 0.42763221 1.224934 nan
1.6278305 0.42408884 1.2248056 nan
1.6292852 0.42117047 1.2249731 nan
1.6297836 0.41793966 1.2249926 nan
1.6331538 0.41562974 1.2254559 nan
1.6250353 0.40964687 1.2241441 nan
1.6274475 0.40703368 1.2244594 nan
1.6279447 0.40381026 1.224479 nan
1.6265253 0.39998746 1.2242025 nan
1.6279806 0.39706552 1.22437 nan
1.6227238 0.39206815 1.2235016 nan
1.6232191 0.38885754 1.223521 nan
1.6256334 0.38623148 1.2238364 nan
1.627089 0.38330764 1.2240038 nan
1.6266249 0.37980294 1.2238753 nan
1.6271209 0.37658867 1.2238947 nan
1.6276166 0.3733744 1.2239141 nan
1.6261907 0.36959404 1.2236375 nan
1.6276472 0.36666465 1.223805 nan
1.6281427 0.36345226 1.2238243 -2.4731969e+38
1.6286383 0.3602398 1.2238438 -2.5134351e+38
1.6291338 0.35702738 1.2238631 -2.7936656e+38
1.6363658 0.35573167 1.2249194 -2.3149943e+38
1.6368632 0.35250634 1.2249389 -1.7945622e+38
1.6373608 0.34928101 1.2249584 -1.7679809e+38
1.6303852 -0.19813713 1.2146391 nan
1.6288332 -0.2011005 1.2143575 nan
1.6212071 -0.20376322 1.2131754 -2.5542028e+38
1.621676 -0.20680228 1.2131938 -3.2994564e+38
1.6221447 -0.20984137 1.2132121 nan
1.6155224 -0.21249941 1.2121799 nan
1.6159892 -0.2155256 1.2121981 nan
1.6083477 -0.21808681 1.2110155 nan
1.6108398 -0.22121814 1.211334 nan
1.6143475 -0.22441864 1.2118026 nan
1.6168422 -0.22756663 1.2121212 nan
1.6091911 -0.23006696 1.2109381 nan
1.6045804 -0.23273984 1.2102054 nan
1.6091043 -0.23601696 1.2108244 nan
1.6105838 -0.23909569 1.2109927 nan
1.6090163 -0.24195951 1.2107105 nan
1.6084639 -0.24489072 1.2105784 nan
1.6089274 -0.24789476 1.2105966 nan
1.6083739 -0.25082037 1.2104645 nan
1.6098541 -0.25390285 1.2106329 nan
1.612352 -0.25707105 1.2109517 nan
1.612816 -0.26007882 1.2109698 nan
1.6132799 -0.26308653 1.210988 nan
1.6137439 -0.26609427 1.2110062 nan
1.6121711 -0.26892304 1.2107238 nan
1.6116157 -0.27183577 1.2105916 nan
1.6120788 -0.27483797 1.2106097 nan
1.6125419 -0.27784017 1.2106279 nan
1.6119856 -0.28074554 1.2104957 nan
1.6124485 -0.28374591 1.2105138 nan
1.6149514 -0.28694731 1.2108327 nan
1.6174556 -0.29015613 1.2111517 nan
1.6179196 -0.29316384 1.2111698 nan
1.6102157 -0.29532304 1.2099848 nan
1.6106774 -0.298316 1.2100029 nan
1.6121607 -0.30141875 1.2101713 nan
1.6146662 -0.30463675 1.2104903 nan
1.6151288 -0.30763528 1.2105085 nan
1.6084347 -0.30982679 1.2094734 nan
1.6078726 -0.31269529 1.2093409 nan
1.6083329 -0.31567904 1.2093589 nan
1.6159557 -0.31950849 1.2104305 nan
1.6102768 -0.32176918 1.2095456 nan
1.6086899 -0.32450578 1.2092626 nan
1.6101739 -0.32761407 1.2094312 nan
1.6126829 -0.33085421 1.2097503 nan
1.6110945 -0.3335816 1.2094672 nan
1.6115547 -0.33656535 1.2094853 nan
1.612015 -0.33954909 1.2095033 nan
1.6124753 -0.34253284 1.2095213 nan
1.6139612 -0.34565401 1.20969 nan
1.6062132 -0.34752554 1.2085031 nan
1.6056451 -0.35035524 1.2083704 nan
1.6050764 -0.35318136 1.2082378 nan
1.6045071 -0.3560037 1.2081051 nan
1.6049646 -0.35896903 1.208123 nan
1.6279703 0.5026266 1.2228477 nan
1.6199195 0.49619734 1.2215555 nan
1.6204185 0.49296278 1.221575 nan
1.6294749 0.49287319 1.2229067 nan
1.6309274 0.48996961 1.2230722 nan
1.6314292 0.48671657 1.2230918 nan
1.6414477 0.48690259 1.2245698 nan
1.6333847 0.48055267 1.2232771 nan
1.6338868 0.47729778 1.2232968 nan
1.6353414 0.47438133 1.2234622 nan
1.6358438 0.47112465 1.2234819 nan
1.6372992 0.46820259 1.2236476 nan
1.6387553 0.46527696 1.2238132 nan
1.6402118 0.46234751 1.2239788 nan
1.6349915 0.45711052 1.223123 nan
1.6374013 0.45451391 1.2234344 nan
1.6379035 0.45125908 1.2234542 nan
1.6384056 0.44800425 1.2234738 nan
1.6389077 0.44474936 1.2234936 nan
1.6317668 0.43893516 1.2223454 nan
1.6313109 0.43537688 1.222219 nan
1.6308546 0.43182242 1.2220926 nan
1.6284852 0.42764282 1.2216741 nan
1.6280271 0.42409945 1.2215476 nan
1.6294819 0.42118108 1.2217132 nan
1.6318944 0.41856802 1.2220248 nan
1.6237773 0.41257024 1.2207298 nan
1.623316 0.40904713 1.2206032 nan
1.6228541 0.40552771 1.2204766 nan
1.6233499 0.40231335 1.2204961 nan
1.6248044 0.3993988 1.2206616 nan
1.6262592 0.3964805 1.2208271 nan
1.6210012 0.39148682 1.2199699 nan
1.6214958 0.38827991 1.2199893 nan
1.6248695 0.38594979 1.2204471 nan
1.625365 0.38273734 1.2204665 nan
1.6258606 0.37952495 1.2204859 nan
1.6263561 0.37631249 1.2205054 nan
1.6268517 0.37310007 1.2205248 nan
1.626386 0.36960462 1.2203979 nan
1.6278428 0.36667523 1.2205637 nan
1.6283383 0.36346281 1.2205831 -2.4197675e+38
1.6288339 0.36025035 1.2206025 -2.4331109e+38
1.6283671 0.35676229 1.2204757 -2.740032e+38
1.6384871 0.35628992 1.2219577 -2.4877436e+38
1.6389853 0.3530609 1.2219771 -2.1007039e+38
1.6394833 0.34983188 1.2219967 -2.0874147e+38
1.6230199 -0.19476607 1.2104985 nan
1.6224779 -0.19776544 1.2103686 nan
1.6209233 -0.20071411 1.2100906 nan
1.6213921 -0.2037532 1.210109 -2.5809958e+38
1.621861 -0.20679227 1.2101274 -3.2329952e+38
1.6152399 -0.2094633 1.2091082 nan
1.6157067 -0.21248946 1.2091265 nan
1.6161735 -0.21551564 1.2091448 nan
1.608531 -0.21807688 1.2079771 nan
1.6110234 -0.22120821 1.2082918 nan
1.6135169 -0.22434694 1.2086065 nan
1.6170263 -0.22755668 1.2090697 nan
1.6093742 -0.23005706 1.2079015 nan
1.604763 -0.23272994 1.2071781 nan
1.608272 -0.23593786 1.2076412 nan
1.6097513 -0.23901477 1.2078078 nan
1.6081834 -0.24187678 1.2075293 nan
1.6106793 -0.24503025 1.2078441 nan
1.6111432 -0.24803799 1.2078624 nan
1.606523 -0.25065371 1.2071385 nan
1.610037 -0.25389296 1.2076019 nan
1.6105003 -0.25689697 1.20762 nan
1.6109637 -0.25990102 1.2076383 nan
1.613463 -0.26307663 1.2079532 nan
1.613927 -0.26608437 1.2079715 nan
1.6133724 -0.26900259 1.2078412 nan
1.6128173 -0.27191719 1.2077109 nan
1.6132808 -0.27492124 1.2077291 nan
1.6127247 -0.2778303 1.2075987 nan
1.6121682 -0.28073564 1.2074684 nan
1.6126311 -0.28373602 1.2074865 nan
1.6151342 -0.28693742 1.2078017 nan
1.6176387 -0.29014623 1.2081169 nan
1.6089156 -0.29221603 1.2067983 nan
1.609377 -0.29520717 1.2068163 nan
1.6098384 -0.29819828 1.2068344 nan
1.6102998 -0.30118942 1.2068526 nan
1.6117829 -0.30429211 1.2070192 nan
1.6132669 -0.30739856 1.2071859 nan
1.6075939 -0.30970171 1.2063123 nan
1.6080542 -0.31268549 1.2063304 nan
1.6085144 -0.31566924 1.2063484 nan
1.6151148 -0.31937784 1.2072583 nan
1.6114824 -0.32188201 1.2066817 nan
1.6088713 -0.32449597 1.2062539 nan
1.6093314 -0.32747787 1.2062719 nan
1.6128649 -0.33084437 1.206736 nan
1.611276 -0.33357179 1.2064567 nan
1.6127614 -0.33668739 1.2066234 nan
1.6132219 -0.33967298 1.2066414 nan
1.6136825 -0.34265858 1.2066596 nan
1.614143 -0.34564418 1.2066776 nan
1.6146035 -0.34862977 1.2066956 nan
1.6058258 -0.35034549 1.2053748 nan
1.6052572 -0.35317159 1.2052439 nan
1.6046877 -0.35599396 1.2051132 nan
1.6051451 -0.35895929 1.2051311 nan
1.6281682 0.50263727 1.2195674 nan
1.6210669 0.49656105 1.2184358 -3.3803003e+38
1.6215662 0.4933247 1.2184553 nan
1.6220654 0.49008828 1.2184749 nan
1.6320766 0.49032784 1.219934 nan
1.6325787 0.48707306 1.2199537 nan
1.6330808 0.48381817 1.2199733 nan
1.6335828 0.48056334 1.219993 nan
1.6350373 0.47764874 1.2201567 nan
1.6364923 0.47473037 1.2203203 nan
1.636995 0.47147191 1.22034 nan
1.6384509 0.46854806 1.2205038 nan
1.6399071 0.46562052 1.2206675 nan
1.6413642 0.46268928 1.2208313 nan
1.6342353 0.456792 1.2196985 nan
1.6375996 0.45452464 1.2201505 nan
1.6381016 0.45126975 1.22017 nan
1.636694 0.44736767 1.2199016 nan
1.6381506 0.44443834 1.2200654 nan
1.6386524 0.44118536 1.220085 nan
1.631508 0.43538761 1.2189517 nan
1.6310517 0.43183309 1.2188271 nan
1.6277255 0.42733908 1.2182701 nan
1.6282237 0.42411005 1.2182896 nan
1.6296786 0.42119175 1.2184533 nan
1.6320913 0.41857862 1.2187612 nan
1.6239731 0.41258085 1.217483 nan
1.6225539 0.40875256 1.2172141 nan
1.6201758 0.40462828 1.2168009 nan
1.6225874 0.40202248 1.2171087 nan
1.6250001 0.39940935 1.2174165 nan
1.6245372 0.39589542 1.2172918 nan
1.6192781 0.39090538 1.2164457 nan
1.6207317 0.38799632 1.2166094 nan
1.6212261 0.38479125 1.2166287 nan
1.6217204 0.38158619 1.2166481 nan
1.6250957 0.37924695 1.2171004 nan
1.6246306 0.37574962 1.2169755 nan
1.6251255 0.37254086 1.2169949 nan
1.6275427 0.3698982 1.2173029 nan
1.6280383 0.36668581 1.2173223 -3.3938566e+38
1.6285338 0.36347336 1.2173418 -2.3796297e+38
1.6290294 0.36026093 1.2173612 -2.4068373e+38
1.6304871 0.35732418 1.217525 -2.6470871e+38
1.6396463 0.35657442 1.2188439 -2.5806839e+38
1.6401446 0.35334355 1.2188635 -2.2471776e+38
1.640643 0.35011268 1.218883 -2.2600036e+38
1.6221937 -0.19471267 1.2072802 nan
1.6206396 -0.19766504 1.207006 nan
1.6211083 -0.20070413 1.2070243 nan
1.6215771 -0.20374322 1.2070427 -2.6608538e+38
1.6220459 -0.20678228 1.2070611 -3.3125923e+38
1.6144112 -0.20940074 1.2059085 nan
1.6148778 -0.21242505 1.2059268 nan
1.6153443 -0.21544939 1.205945 nan
1.6077005 -0.21800888 1.2047921 nan
1.6101928 -0.22113833 1.2051032 nan
1.6126863 -0.2242752 1.2054142 nan
1.6131517 -0.22729215 1.2054324 nan
1.6054977 -0.22978523 1.2042792 nan
1.6049457 -0.23272008 1.2041509 nan
1.6064239 -0.23578963 1.2043154 nan
1.6099343 -0.23900488 1.2047731 nan
1.6103983 -0.24201262 1.2047912 nan
1.6118786 -0.24509507 1.2049559 nan
1.6123428 -0.24810463 1.2049741 nan
1.6077226 -0.25072223 1.2042596 nan
1.6092025 -0.25380284 1.2044244 nan
1.6096656 -0.25680503 1.2044425 nan
1.6111466 -0.25989115 1.2046072 nan
1.613646 -0.26306674 1.2049185 nan
1.61411 -0.26607448 1.2049367 nan
1.614574 -0.26908219 1.2049549 nan
1.6130002 -0.27190733 1.2046798 nan
1.6124443 -0.27481821 1.2045515 nan
1.6129074 -0.27782041 1.2045696 nan
1.6123508 -0.28072578 1.2044411 nan
1.6128137 -0.28372616 1.2044592 nan
1.6173579 -0.2871286 1.2050641 nan
1.6178218 -0.29013634 1.2050822 nan
1.6090976 -0.2922062 1.2037803 nan
1.6095591 -0.29519734 1.2037983 nan
1.6100204 -0.29818845 1.2038164 nan
1.6104819 -0.30117959 1.2038345 nan
1.6109432 -0.30417073 1.2038527 nan
1.6134492 -0.30738869 1.2041641 nan
1.6139113 -0.3103835 1.2041823 nan
1.6133503 -0.31326121 1.2040536 nan
1.6148351 -0.31637317 1.2042185 nan
1.6142735 -0.31924719 1.2040898 nan
1.6106404 -0.32174954 1.2035208 nan
1.6090529 -0.32448617 1.2032452 nan
1.6095129 -0.32746807 1.2032632 nan
1.6109974 -0.33057818 1.203428 nan
1.6124825 -0.33369195 1.2035929 nan
1.6129431 -0.33667758 1.203611 nan
1.6134037 -0.33966318 1.203629 nan
1.6138642 -0.34264877 1.2036471 nan
1.6143248 -0.34563437 1.2036651 nan
1.6147853 -0.34861997 1.2036831 nan
1.6060066 -0.35033572 1.2023791 nan
1.6054378 -0.35316184 1.2022502 nan
1.6048682 -0.35598418 1.2021213 nan
1.6053256 -0.35894951 1.2021391 nan
1.6198144 0.49945319 1.2150087 -3.3936465e+38
1.6222143 0.49692488 1.2153124 -3.3536131e+38
1.6227138 0.49368662 1.2153319 -3.3935895e+38
1.6232133 0.49044836 1.2153515 nan
1.6341773 0.49103379 1.216934 nan
1.63468 0.48777521 1.2169538 nan
1.6351827 0.48451674 1.2169734 nan
1.6366376 0.48160028 1.2171352 nan
1.636188 0.47799963 1.2170129 nan
1.6376435 0.47507954 1.2171746 nan
1.6371933 0.47148263 1.2170522 nan
1.6396025 0.46889341 1.2173562 nan
1.6401057 0.46563125 1.217376 nan
1.6425167 0.46303099 1.2176801 nan
1.6353873 0.45713186 1.2165623 nan
1.6377977 0.45453531 1.2168663 nan
1.6392545 0.45160592 1.2170281 nan
1.6378468 0.44770205 1.2167635 nan
1.6383486 0.44444901 1.2167832 nan
1.6388505 0.44119602 1.2168028 nan
1.6317052 0.43539822 1.2156843 nan
1.6302924 0.4315275 1.2154194 nan
1.6269656 0.42703533 1.2148697 nan
1.6274635 0.42380822 1.2148893 nan
1.6289183 0.42089164 1.2150512 nan
1.6294163 0.41766262 1.2150706 nan
1.630872 0.41474068 1.2152325 nan
1.6227496 0.40876305 1.2139709 nan
1.6270781 0.40676224 1.2145598 nan
1.627575 0.40354061 1.2145792 nan
1.6242371 0.39912027 1.2140292 nan
1.6247329 0.39590597 1.2140486 nan
1.6194731 0.39091593 1.2132137 nan
1.6199672 0.38771272 1.213233 nan
1.6214212 0.38480181 1.2133949 nan
1.6219156 0.38159674 1.2134142 nan
1.6243309 0.37896889 1.2137185 nan
1.6248258 0.3757602 1.213738 nan
1.6253208 0.37255144 1.2137573 nan
1.6277384 0.36990878 1.2140616 nan
1.6282339 0.36669636 1.214081 nan
1.6287293 0.36348394 1.2141005 -2.3796816e+38
1.6301869 0.36054903 1.2142625 -2.4332142e+38
1.6306827 0.35733476 1.2142819 -2.6867548e+38
1.6408057 0.35685888 1.2157266 -2.6335386e+38
1.6413044 0.35362619 1.2157462 -2.4067357e+38
1.6495091 0.35255462 1.2169062 -2.3134311e+38
1.6244022 -0.19478932 1.204499 nan
1.6198125 -0.19760984 1.2037951 nan
1.6202811 -0.20064706 1.2038134 nan
1.6207496 -0.2036843 1.2038318 -2.6875426e+38
1.6141288 -0.20636648 1.2028387 -3.3125402e+38
1.6166214 -0.20949596 1.203146 nan
1.6181018 -0.21257836 1.2033088 nan
1.6165419 -0.21549574 1.2030381 nan
1.6078836 -0.21799898 1.2017555 nan
1.6083479 -0.22100857 1.2017738 nan
1.6098267 -0.22407994 1.2019365 nan
1.6102912 -0.22709134 1.2019547 nan
1.6026354 -0.22957894 1.2008162 nan
1.6020823 -0.2325083 1.2006898 nan
1.6066066 -0.23577976 1.2012863 nan
1.6101174 -0.23899499 1.2017382 nan
1.6105814 -0.24200273 1.2017565 nan
1.6090125 -0.24486107 1.2014854 nan
1.609476 -0.24786511 1.2015035 nan
1.6079053 -0.25071236 1.2012324 nan
1.6093853 -0.25379297 1.2013952 nan
1.6098484 -0.25679517 1.2014134 nan
1.6103115 -0.25979733 1.2014315 nan
1.6138291 -0.26305684 1.2018838 nan
1.6142931 -0.26606458 1.2019019 nan
1.6147571 -0.26907229 1.2019202 nan
1.6121639 -0.27180615 1.2015041 nan
1.6146657 -0.27499461 1.2018118 nan
1.6151295 -0.27800047 1.2018299 nan
1.6145732 -0.28090957 1.2017033 nan
1.6140164 -0.28381497 1.2015767 nan
1.6175408 -0.2871187 1.2020292 nan
1.6180048 -0.29012644 1.2020475 nan
1.6184688 -0.29313415 1.2020656 nan
1.6097411 -0.29518747 1.2007804 nan
1.6102026 -0.29817858 1.2007984 nan
1.6106639 -0.30116972 1.2008165 nan
1.6121473 -0.30427244 1.2009795 nan
1.6146539 -0.30749226 1.2012873 nan
1.6151162 -0.31048894 1.2013054 nan
1.6145555 -0.3133685 1.2011787 nan
1.6150175 -0.31636333 1.2011968 nan
1.6144558 -0.31923735 1.20107 nan
1.6118461 -0.32186234 1.2006533 nan
1.6030896 -0.32372943 1.1993668 nan
1.6035478 -0.32670027 1.1993848 nan
1.6111791 -0.33056837 1.2004175 nan
1.6126643 -0.33368212 1.2005805 nan
1.6131248 -0.33666775 1.2005986 nan
