# .PCD v0.7 - Point Cloud Data file format
VERSION 0.7
FIELDS x y z rgb
SIZE 4 4 4 4
TYPE F F F F
COUNT 1 1 1 1
WIDTH 1226
HEIGHT 1
VIEWPOINT 0 0 0 1 0 0 0
POINTS 1226
DATA ascii
0.018894019 -0.2986719 1.7344642 nan
0.018864216 -0.30347654 1.7344929 nan
0.034563363 -0.3105019 1.7392976 nan
0.01880485 -0.31308579 1.7345502 nan
0.0020630967 -0.31546748 1.729504 nan
0.0020335328 -0.32024041 1.7295325 nan
0.0079019675 -0.32589087 1.7313523 nan
0.0039406433 -0.33008248 1.7301867 nan
-0.0039531575 -0.33365917 1.7278266 nan
-0.0020164836 -0.33872464 1.7284523 nan
0.012698234 -0.3457959 1.7329596 nan
0.015617431 -0.35105616 1.7338841 nan
0.019519867 -0.35648501 1.7351074 nan
0.021455826 -0.36161014 1.7357333 nan
0.024374785 -0.36690396 1.736658 nan
0.016481699 -0.37041536 1.7342975 nan
-0.001240431 -0.37224773 1.7289503 nan
-0.012081801 -0.37518039 1.7256933 nan
0.0055807247 -0.38296288 1.7310979 nan
0.0055511608 -0.38774326 1.7311265 nan
0.0035558355 -0.39217892 1.7305577 nan
0.014337362 -0.39887229 1.7338722 nan
0.029050412 -0.40631115 1.7383819 nan
0.029020609 -0.4111363 1.7384107 nan
0.030956091 -0.41632116 1.7390369 nan
0.030926051 -0.42115006 1.7390658 nan
0.032862008 -0.42634612 1.7396922 nan
0.030866208 -0.43080786 1.7391235 nan
0.028871121 -0.43526211 1.7385548 nan
0.010168851 -0.43649295 1.7329063 nan
0.010139287 -0.44128266 1.732935 -3.1131509e+38
-0.0046316967 -0.44317874 1.7284811 -2.7666661e+38
0.0041833534 -0.44969344 1.7311991 -2.9270596e+38
-0.01450175 0.45893255 1.7136086 nan
-0.014531075 0.45420069 1.7136369 nan
-0.017515121 0.44899523 1.7127806 nan
0.0011704577 0.44723299 1.7184117 nan
0.0011408938 0.44247127 1.7184401 nan
0.0011113299 0.43770954 1.7184685 nan
0.0010820044 0.43294784 1.718497 nan
0.0010524405 0.42818609 1.7185254 nan
0.0010228766 0.42342436 1.7185539 nan
0.00099331269 0.41866264 1.7185824 nan
0.0009639872 0.41390091 1.7186108 nan
-0.037477195 0.40363735 1.7071352 nan
-0.037506044 0.3989484 1.7071633 nan
-0.019807277 0.39673159 1.7125013 nan
-0.019836364 0.39200905 1.7125294 nan
-0.020850359 0.38715291 1.7122626 nan
-0.018910108 0.38269567 1.712881 nan
-0.018939434 0.37797129 1.7129092 nan
-0.018968521 0.37324688 1.7129374 nan
-0.018997846 0.36852247 1.7129656 nan
-0.019027172 0.36379808 1.7129939 nan
-0.019056497 0.35907364 1.7130221 nan
-0.019085584 0.35434926 1.7130504 nan
-0.01911491 0.34962484 1.7130786 nan
-0.015205323 0.34536773 1.7142873 nan
-0.019173561 0.34017605 1.713135 nan
-0.019202886 0.33545166 1.7131633 nan
-0.017262636 0.33094969 1.7137818 nan
-0.019261299 0.32600284 1.7132198 nan
-0.019290624 0.32127842 1.713248 nan
-0.01931995 0.31655401 1.7132761 nan
-0.019349037 0.31182963 1.7133044 nan
-0.019378362 0.30710521 1.7133327 nan
-0.015469252 0.30278093 1.7145417 nan
-0.012544571 0.29834357 1.7154558 -3.1265499e+38
-0.010604559 0.29379863 1.7160746 -3.0208367e+38
0.035152495 -0.2621876 1.7341878 nan
0.019390406 -0.26506987 1.7294719 nan
0.040009081 -0.27247605 1.7357284 nan
0.039979279 -0.27731985 1.7357574 nan
0.046831906 -0.28305691 1.7378622 nan
0.048768342 -0.28817278 1.7384845 nan
0.039889157 -0.29185128 1.7358441 nan
0.038875878 -0.29656193 1.7355765 nan
0.020165266 -0.29883742 1.7299696 nan
0.017185988 -0.30323306 1.7291083 nan
0.028954091 -0.30969968 1.7326968 nan
0.017126383 -0.31283486 1.7291658 nan
-0.0015832769 -0.31492755 1.7235577 nan
0.0023196351 -0.32027063 1.7247729 nan
0.0042563095 -0.32533607 1.725395 nan
-0.0016719686 -0.3292239 1.7236432 nan
-0.0036677707 -0.3336893 1.7230783 nan
0.0031843793 -0.33951417 1.7251837 nan
0.016918244 -0.34644121 1.7293665 nan
0.033600628 -0.35388732 1.7344398 nan
0.037503064 -0.35934985 1.7356558 nan
0.037473023 -0.36418995 1.7356848 nan
0.041374981 -0.3696748 1.7369008 nan
0.041344941 -0.37452236 1.7369298 nan
0.010841669 -0.37425706 1.7277579 nan
0.0049136295 -0.37804598 1.7260056 nan
0.021595063 -0.38569176 1.7310803 nan
0.025497021 -0.39118409 1.7322962 nan
0.010722936 -0.3934159 1.7278724 nan
0.021505656 -0.40012246 1.7311665 nan
0.029339613 -0.4063417 1.7335701 nan
0.029309811 -0.41116685 1.7335989 nan
0.031245293 -0.41635174 1.7342216 nan
0.031215491 -0.42118064 1.7342504 nan
0.03118545 -0.42600954 1.7342793 nan
0.031155648 -0.43083844 1.7343081 nan
0.031125607 -0.43566731 1.734337 nan
0.010455907 -0.43652329 1.72813 nan
0.010426105 -0.441313 1.7281586 -3.1663206e+38
-0.012208878 -0.44166556 1.7213569 -2.7933551e+38
-0.010277211 0.45954895 1.710062 nan
-0.014247595 0.45417073 1.7089182 nan
-0.017232118 0.44896531 1.7080675 nan
0.0014558447 0.44720283 1.7136632 nan
0.0014262808 0.44244111 1.7136917 nan
0.0013967169 0.43767938 1.7137201 nan
0.001367153 0.43291768 1.7137486 nan
0.0013378275 0.42815593 1.7137771 nan
0.0013082636 0.4233942 1.7138054 nan
0.0012786997 0.41863248 1.7138339 nan
0.00026422867 0.41372779 1.7135694 nan
-0.019465623 0.40614676 1.7077354 nan
-0.020479856 0.40128502 1.7074705 nan
-0.019524274 0.39670169 1.7077918 nan
-0.0195536 0.39197916 1.7078202 nan
-0.02155274 0.38698941 1.707262 nan
-0.019612012 0.38253406 1.7078766 nan
-0.018656192 0.3779414 1.708198 nan
-0.018685518 0.37321699 1.7082262 nan
-0.018714843 0.36849257 1.7082545 nan
-0.018744169 0.36376819 1.7082827 nan
-0.018773256 0.35904375 1.7083108 nan
-0.018802581 0.35431936 1.7083391 nan
-0.018831907 0.34959495 1.7083673 nan
-0.014921843 0.34533778 1.7095686 nan
-0.018890319 0.34014615 1.7084239 nan
-0.018919645 0.33542177 1.7084521 nan
-0.01894897 0.33069736 1.7084802 nan
-0.018978296 0.32597294 1.7085085 nan
-0.019007383 0.32124853 1.7085367 nan
-0.015097796 0.3169466 1.7097383 nan
-0.017096458 0.31200722 1.7091799 nan
-0.019095359 0.30707532 1.7086215 nan
-0.018139778 0.30245095 1.7089431 nan
-0.010291039 0.29850984 1.7113183 -3.113257e+38
-0.010320364 0.29376861 1.7113466 -3.0076485e+38
0.039375842 -0.26269892 1.7305455 nan
0.016727747 -0.26473421 1.7237967 nan
0.03833276 -0.27225894 1.7303088 nan
0.03830272 -0.27709901 1.7303376 nan
0.04122287 -0.28232196 1.7312508 nan
0.042176068 -0.2872971 1.7315743 nan
0.039195836 -0.29175064 1.7307191 nan
0.035232604 -0.29605967 1.7295691 nan
0.028319659 -0.29994854 1.7275345 nan
0.025339903 -0.30435911 1.7266791 nan
0.016460242 -0.30792555 1.7240548 nan
0.015447439 -0.31258392 1.7237887 nan
-0.0091640344 -0.31381726 1.7164471 nan
0.0016224993 -0.3201564 1.7197186 nan
-0.00037377945 -0.32463491 1.7191573 nan
-0.0043360577 -0.32880962 1.7180066 nan
-0.0043656216 -0.33356947 1.718035 nan
-0.014227091 -0.3368105 1.7151147 nan
-0.0014750349 -0.34355041 1.7189765 nan
0.033890069 -0.35391793 1.7296208 nan
0.037792981 -0.35938051 1.7308292 nan
0.03776294 -0.36422062 1.7308582 nan
0.04559809 -0.37035036 1.7332466 nan
0.047534287 -0.37553155 1.7338653 nan
0.029808106 -0.37742126 1.7285855 nan
0.023879351 -0.38124561 1.7268445 nan
0.021883311 -0.38572222 1.7262834 nan
0.025785746 -0.39121461 1.7274921 nan
0.012975753 -0.39379102 1.723686 nan
0.021793904 -0.40015292 1.7263696 nan
0.029628815 -0.40637225 1.7287585 nan
0.029598774 -0.41119739 1.7287873 nan
0.031534731 -0.41638231 1.7294062 nan
0.031504691 -0.42121121 1.7294351 nan
0.031474888 -0.42604011 1.7294639 nan
0.011785091 -0.42715967 1.7235914 nan
0.0068405285 -0.43101451 1.7221447 nan
0.010742725 -0.4365536 1.7233536 nan
0.010713161 -0.44134331 1.7233822 -3.1931141e+38
-0.014873444 -0.44111684 1.7157381 -2.7933034e+38
-0.01393479 0.45887265 1.7041714 nan
-0.013964116 0.45414078 1.7041996 nan
0.0017705573 0.45193443 1.7088864 nan
0.0017409933 0.4471727 1.7089148 nan
0.0017114294 0.44241098 1.7089432 nan
0.001682104 0.43764925 1.7089717 nan
0.0016525401 0.43288755 1.7090001 nan
0.0016229762 0.4281258 1.7090287 nan
0.0015936507 0.42336407 1.7090571 nan
0.0005789412 0.41845751 1.7087944 nan
-0.018168388 0.41098228 1.7032892 nan
-0.037900388 0.4034369 1.6974922 nan
-0.022167383 0.40097675 1.7021805 nan
-0.022196708 0.39625981 1.7022088 nan
-0.02124065 0.39167833 1.7025282 nan
-0.021269975 0.38695955 1.7025564 nan
-0.01932901 0.38250417 1.7031672 nan
-0.018373189 0.37791148 1.7034868 nan
-0.018402515 0.37318707 1.7035149 nan
-0.01843184 0.36846265 1.7035432 nan
-0.018460928 0.36373827 1.7035714 nan
-0.018490253 0.35901383 1.7035997 nan
-0.018519579 0.35428944 1.7036279 nan
-0.018548904 0.34956503 1.7036562 nan
-0.018577991 0.34484065 1.7036843 nan
-0.018607317 0.34011623 1.7037126 nan
-0.018636642 0.33539185 1.7037408 nan
-0.018665968 0.33066744 1.7037691 nan
-0.016725479 0.32616168 1.7043803 nan
-0.016754566 0.32143354 1.7044084 nan
-0.0029949534 0.31818381 1.7085171 nan
-0.0030245173 0.31342953 1.7085454 nan
-0.016842542 0.30724916 1.7044933 nan
-0.015886961 0.30262101 1.704813 nan
-0.0011431562 0.29936305 1.7092139 -3.1266537e+38
-0.0031422961 0.29441249 1.7086592 -3.0209412e+38
0.035731852 -0.26224881 1.7245458 nan
0.03570205 -0.26708332 1.7245748 nan
0.017969431 -0.26968753 1.7193326 nan
0.02974111 -0.2759977 1.7228754 nan
0.031678498 -0.28107628 1.72349 nan
0.028698029 -0.28551477 1.7226403 nan
0.025717797 -0.28994212 1.7217904 nan
0.022737803 -0.29435822 1.7209404 nan
0.018774094 -0.29862806 1.7197976 nan
0.017761292 -0.30329385 1.7195334 nan
0.015764536 -0.30781713 1.7189763 nan
0.01376778 -0.31233287 1.7184191 nan
-0.0029792178 -0.31470272 1.7134676 nan
-0.0010418283 -0.31975332 1.714082 nan
0.00089556107 -0.32481134 1.7146964 nan
-0.0020841944 -0.32913607 1.713846 nan
-0.004080473 -0.3335996 1.7132884 nan
-0.017876325 -0.33623293 1.7092147 nan
-0.0011894094 -0.34358057 1.7142243 nan
0.0076306476 -0.34974661 1.7168901 nan
0.022350373 -0.35689127 1.7213142 nan
0.04198581 -0.36488864 1.7272038 nan
0.028190197 -0.36747909 1.72313 nan
0.022260966 -0.37132198 1.7214003 nan
0.0074825897 -0.37365788 1.7170329 nan
0.021218123 -0.38077563 1.7211647 nan
0.017255606 -0.38490924 1.7200211 nan
0.017225804 -0.38971016 1.7200499 nan
0.0093303332 -0.39313167 1.7177335 nan
0.015199722 -0.39896339 1.7195209 nan
0.029917778 -0.4064028 1.7239468 nan
0.029887976 -0.41122794 1.7239757 nan
0.029857935 -0.41605312 1.7240045 nan
0.029828133 -0.42087826 1.7240334 nan
0.033730567 -0.42643788 1.7252349 nan
0.002240957 -0.4253352 1.7158812 nan
-0.0066365586 -0.428422 1.7132709 nan
0.0070973053 -0.43582708 1.7174044 nan
0.0070677414 -0.44060931 1.717433 -3.1396844e+38
-0.01164025 -0.44172567 1.71189 -2.7132899e+38
-0.013651072 0.45884269 1.6994526 nan
0.0050414219 0.45714504 1.7049773 nan
0.0020559442 0.45190427 1.704138 nan
0.0020263803 0.44714254 1.7041664 nan
0.0019968164 0.44238082 1.7041948 nan
0.0019672525 0.43761909 1.7042234 nan
0.0019379271 0.43285739 1.7042518 nan
-6.2166371e-05 0.42779863 1.7037015 nan
-9.1730275e-05 0.42304066 1.7037299 nan
0.00086432823 0.41842738 1.7040477 nan
-0.017885147 0.41095239 1.6985779 nan
-0.036634147 0.4035483 1.6931077 nan
-0.021884857 0.40094689 1.6974769 nan
-0.021913944 0.39622995 1.697505 nan
-0.01997274 0.39178389 1.698112 nan
-0.0091647496 0.38853255 1.701324 nan
-0.0091940751 0.38379136 1.7013524 nan
-0.016119896 0.37814128 1.6993544 nan
-0.018119274 0.37315717 1.6988038 nan
-0.02208942 0.3679283 1.697674 nan
-0.022118507 0.36321136 1.6977023 nan
-0.020177303 0.3587392 1.6983094 nan
-0.02217692 0.3537775 1.6977587 nan
-0.022206245 0.34906057 1.6977868 nan
-0.018294988 0.34481075 1.6989732 nan
-0.020294366 0.33985651 1.6984223 nan
-0.020323692 0.33513582 1.6984506 nan
-0.018382726 0.33063754 1.6990578 nan
-0.016441999 0.32613176 1.6996653 nan
-0.016471324 0.32140362 1.6996934 nan
-0.0007402288 0.31836489 1.7043555 nan
-0.00076955429 0.31360689 1.7043839 nan
-0.016559301 0.30721924 1.6997783 nan
-0.016588626 0.3024911 1.6998065 nan
-0.0028280604 0.29913667 1.7038898 -3.166635e+38
-0.0028573859 0.29438239 1.7039182 -3.0609742e+38
0.019329848 -0.25543356 1.7147499 -3.0203676e+38
0.035038054 -0.26215926 1.7194339 nan
0.035991728 -0.26711392 1.7197537 nan
0.017273249 -0.26959401 1.7142541 nan
0.02314526 -0.27514771 1.7160287 nan
0.025082411 -0.28021327 1.7166395 nan
0.025052609 -0.28502724 1.7166682 nan
0.022072138 -0.28944704 1.7158239 nan
0.023026051 -0.29438865 1.7161436 nan
0.022996249 -0.2991989 1.7161725 nan
0.020999493 -0.30373523 1.7156191 nan
0.018019022 -0.30812517 1.7147746 nan
0.014055074 -0.31236321 1.713639 nan
-0.0026938308 -0.31473288 1.7087193 nan
-0.00075620285 -0.31978348 1.7093298 nan
0.0011811865 -0.32484153 1.7099404 nan
-0.0017988073 -0.32916623 1.7090957 nan
-0.0037950862 -0.33362973 1.7085419 nan
-0.015626131 -0.33656672 1.7050766 nan
0.0020464074 -0.34407204 1.7103456 nan
0.0039835586 -0.34915438 1.7109565 nan
0.018704953 -0.35629171 1.7153527 nan
0.01867515 -0.3610945 1.7153814 nan
0.011761964 -0.36476859 1.7133718 nan
0.0077987327 -0.3689059 1.7122355 nan
0.0067856922 -0.37352318 1.7119728 nan
0.021506133 -0.38080606 1.7163699 nan
0.02147633 -0.38561442 1.7163986 nan
0.021446528 -0.39042279 1.7164273 nan
0.013550104 -0.39385173 1.7141259 nan
0.01352054 -0.39864516 1.7141546 nan
0.02627355 -0.40572867 1.7179699 nan
0.024277272 -0.41019034 1.7174162 nan
0.024247469 -0.41500434 1.7174449 nan
0.024217429 -0.41981831 1.7174737 nan
0.030087294 -0.42573398 1.7192504 nan
0.013342203 -0.4274058 1.7143264 nan
0.011346401 -0.43182454 1.7137724 nan
0.0073838844 -0.43585736 1.7126355 nan
0.0073543205 -0.44063959 1.7126641 -3.0464826e+38
-0.0093895784 -0.44214162 1.7077391 -2.6597048e+38
0.0014148367 0.46123597 1.6990452 nan
0.020109477 0.45951015 1.7045345 nan
0.0023410928 0.45187414 1.6993896 nan
-0.01641172 0.44414932 1.6939565 nan
-0.016441045 0.43942302 1.6939847 nan
-0.016470371 0.43469676 1.694013 nan
-0.016499458 0.42997047 1.6940413 nan
-0.01849979 0.4249472 1.6934946 nan
-0.018529115 0.42022467 1.6935227 nan
0.0021346223 0.41854206 1.6995888 nan
-0.01661676 0.41106543 1.6941543 nan
-0.03635329 0.40351862 1.6884319 nan
-0.019631324 0.40119538 1.6933481 nan
-0.021631418 0.39620009 1.6928012 nan
-0.019689737 0.39175403 1.6934044 nan
-0.0069100247 0.38876966 1.6971712 nan
-0.0069393502 0.38402474 1.6971996 nan
-0.015836416 0.37811133 1.6946396 nan
-0.017836271 0.37312725 1.6940925 nan
-0.021806655 0.36789843 1.6929703 nan
-0.021835981 0.3631815 1.6929985 nan
-0.019894538 0.35870934 1.693602 nan
-0.021894393 0.35374764 1.6930549 nan
-0.021923719 0.3490307 1.693083 nan
-0.018011985 0.34478083 1.6942619 nan
-0.020011602 0.33982664 1.6937149 nan
-0.020040689 0.33510596 1.693743 nan
-0.018099723 0.33060762 1.6943467 nan
-0.018129049 0.32588321 1.6943749 nan
-0.018158374 0.3211588 1.6944032 nan
-0.00045508018 0.31833479 1.6996107 nan
-0.00048464409 0.31357679 1.6996392 nan
-0.014305769 0.30739298 1.6956389 nan
-0.017290292 0.30236122 1.6948038 nan
-0.01436442 0.29792926 1.6956954 -3.1800315e+38
-0.0045427666 0.29415983 1.6986017 -3.0875594e+38
0.01764995 -0.25522727 1.7093825 -3.0338692e+38
0.034344018 -0.26206967 1.7143257 nan
0.016606869 -0.26470327 1.7091507 nan
0.017560782 -0.26962438 1.7094685 nan
0.018514933 -0.27454919 1.7097863 nan
0.025370898 -0.28024375 1.711839 nan
0.029275956 -0.28557581 1.7130243 nan
0.029245915 -0.29039723 1.713053 nan
0.024298014 -0.29455239 1.7116361 nan
0.022300782 -0.29909426 1.7110864 nan
0.020303788 -0.30362862 1.7105368 nan
0.00060135254 -0.30565616 1.7047815 nan
-0.0043463097 -0.30971983 1.7033639 nan
-0.020113407 -0.31219646 1.6987647 nan
-0.01817554 -0.31721348 1.6993713 nan
-0.019188343 -0.32179904 1.6991105 nan
-0.022168336 -0.32608449 1.6982709 nan
-0.022197662 -0.33080891 1.6982992 nan
-0.020259796 -0.33583716 1.6989059 nan
-0.017338214 -0.3410266 1.699802 nan
-0.00064796081 -0.34840637 1.7047485 nan
0.001289667 -0.35348684 1.7053556 nan
0.0022435796 -0.35841545 1.7056735 nan
0.0041809692 -0.36350894 1.7062807 nan
0.0061181202 -0.36860996 1.706888 nan
0.0060885563 -0.37338847 1.7069165 nan
-0.00082510582 -0.37699911 1.7049195 nan
0.00012880692 -0.38193324 1.7052373 nan
0.019767823 -0.39011204 1.7110536 nan
0.01973802 -0.39491668 1.7110823 nan
0.011841119 -0.39832687 1.7087958 nan
0.024595561 -0.40540686 1.7125869 nan
0.02456552 -0.41022083 1.7126157 nan
0.01666862 -0.41359553 1.7103288 nan
0.017622532 -0.41857633 1.710647 nan
0.02152616 -0.42411181 1.7118335 nan
0.0096963057 -0.42669412 1.7083884 nan
0.015566648 -0.43260434 1.7101541 nan
0.0076704635 -0.43588763 1.7078667 nan
0.0076408996 -0.44066986 1.7078953 -3.1132562e+38
0.0017114294 -0.44429433 1.7061867 -2.713184e+38
0.0016818655 -0.44906539 1.7062151 -2.9001095e+38
0.0056422367 0.46185198 1.6954408 nan
0.024339022 0.46011844 1.7008948 nan
0.00065547356 0.45152834 1.6940699 nan
-0.018099723 0.44380748 1.6886723 nan
-0.016157804 0.4393931 1.6892717 nan
-0.01618713 0.43466684 1.6892999 nan
-0.016216455 0.42994055 1.6893282 nan
-0.016245542 0.42521429 1.6893564 nan
-0.016274868 0.42048803 1.6893847 nan
0.0024200093 0.41851193 1.6948403 nan
-0.016333519 0.41103551 1.6894412 nan
-0.036072433 0.40348893 1.683756 nan
-0.017377554 0.40144375 1.689212 nan
-0.017406879 0.39671934 1.6892402 nan
-0.017436204 0.39199492 1.6892685 nan
-0.0066255913 0.38873962 1.6924396 nan
-0.0066549168 0.3839947 1.6924679 nan
-0.012596785 0.37847087 1.6907818 nan
-0.017553268 0.37309733 1.6893814 nan
-0.017582593 0.36837292 1.6894096 nan
-0.017611681 0.36364853 1.6894379 nan
-0.017641006 0.35892409 1.689466 nan
-0.017670332 0.35419971 1.6894943 nan
-0.017699657 0.34947529 1.6895225 nan
-0.017728744 0.34475091 1.6895508 nan
-0.01775807 0.3400265 1.689579 nan
-0.017787395 0.33530211 1.6896073 nan
-0.017816721 0.3305777 1.6896354 nan
-0.017845808 0.32585329 1.6896636 nan
-0.017875133 0.32112888 1.6896919 nan
-0.00016993156 0.31830466 1.6948661 nan
-0.00019949547 0.31354666 1.6948946 nan
-0.01402229 0.307363 1.6909202 nan
-0.017007051 0.3023313 1.6900908 nan
-0.014080941 0.29789928 1.6909769 -3.2066678e+38
-0.0042583332 0.29412976 1.6938645 -3.1009054e+38
0.072080433 -0.25686485 1.7203647 -3.0610286e+38
0.021873297 -0.25573102 1.7057457 -3.087247e+38
0.034633458 -0.26210025 1.7095084 nan
0.014926494 -0.26448947 1.7037923 nan
0.015880885 -0.26940688 1.7041084 nan
0.017818512 -0.27445379 1.7047114 nan
0.024675669 -0.28014654 1.7067511 nan
0.030548396 -0.28573585 1.7085036 nan
0.031502545 -0.29069057 1.7088197 nan
0.030488553 -0.29538244 1.7085613 nan
0.0078323493 -0.29709762 1.7019818 nan
0.014688791 -0.30283701 1.7040216 nan
0.010724367 -0.30707499 1.7029009 nan
-0.0020937312 -0.31003141 1.699194 nan
-0.014911591 -0.31293935 1.6954865 nan
-0.014940917 -0.31767681 1.6955149 nan
-0.014970242 -0.32241428 1.6955432 nan
-0.021885334 -0.32611442 1.6935596 nan
-0.021914421 -0.33083883 1.6935879 nan
-0.019976554 -0.33586708 1.694191 nan
-0.018038688 -0.34090278 1.6947942 nan
-0.01708406 -0.34579027 1.6951098 nan
-0.015146433 -0.35083908 1.695713 nan
-0.015175759 -0.35557655 1.6957414 nan
-0.012254416 -0.36079779 1.6966321 nan
0.0044375076 -0.36831397 1.7015477 nan
0.00047356018 -0.3724288 1.7004262 nan
-0.0044738636 -0.37636182 1.6990173 nan
0.00041443238 -0.38196343 1.7004832 nan
0.00038486847 -0.38673079 1.7005117 nan
0.02002603 -0.39494711 1.7062911 nan
0.010160984 -0.39800856 1.7034442 nan
0.022917094 -0.40508497 1.7072113 nan
0.022887291 -0.40989521 1.70724 nan
0.010072053 -0.41236648 1.7035301 nan
0.012009443 -0.41751605 1.7041339 nan
0.0060787811 -0.42120385 1.7024368 nan
0.0070326938 -0.42616791 1.7027531 nan
0.017821135 -0.43300945 1.7059455 nan
0.0079570422 -0.43591791 1.7030978 nan
0.0098941932 -0.44108233 1.7037017 -3.140101e+38
0.0098643908 -0.44586831 1.7037303 -2.7801148e+38
0.0098348269 -0.4506543 1.7037588 -2.9404042e+38
0.0059278621 0.46182182 1.6906867 nan
0.024626793 0.46008804 1.6961056 nan
0.00094038376 0.45149821 1.6893253 nan
-0.017816959 0.44377759 1.6839631 nan
-0.015874563 0.43936318 1.6845586 nan
-0.015903888 0.43463692 1.6845869 nan
-0.015933214 0.42991063 1.6846151 nan
-0.015962539 0.42518437 1.6846434 nan
-0.015991865 0.42045811 1.6846716 nan
0.00073415169 0.4181923 1.6895243 nan
-0.018021761 0.41071981 1.6841605 nan
-0.035791337 0.40345925 1.6790801 nan
-0.021036802 0.40085733 1.6833656 nan
-0.022051511 0.39600313 1.6831099 nan
-0.021095453 0.39142346 1.6834219 nan
-0.015211283 0.38750774 1.6851532 nan
-0.010313212 0.38343799 1.6866008 nan
-0.0083712926 0.3789601 1.687197 nan
-0.013328253 0.3735792 1.6858057 nan
-0.017299352 0.36834303 1.6846985 nan
-0.017328678 0.36361864 1.6847267 nan
-0.017358003 0.3588942 1.6847548 nan
-0.017387329 0.35416982 1.6847831 nan
-0.017416416 0.3494454 1.6848114 nan
-0.017445741 0.34472102 1.6848396 nan
-0.017475067 0.33999661 1.6848679 nan
-0.017504392 0.33527222 1.6848961 nan
-0.015562951 0.33077011 1.6854923 nan
-0.018548427 0.32571414 1.6846685 nan
-0.018577514 0.32099158 1.6846967 nan
-0.0067822323 0.31753567 1.6881332 nan
-0.0087825647 0.31258339 1.6875935 nan
-0.015709339 0.30712944 1.6856335 nan
-0.018694578 0.30210143 1.6848097 nan
-0.017738519 0.29747698 1.6851219 -3.2333568e+38
-0.010870873 0.29342616 1.6871387 -3.1010105e+38
-0.010900198 0.28868869 1.6871669 -3.1544404e+38
0.074342072 -0.25712886 1.7160473 -3.0877687e+38
0.065455973 -0.26096907 1.7135085 -3.1139358e+38
0.034922898 -0.26213083 1.7046912 nan
0.01521355 -0.26451981 1.6990123 nan
0.0043607368 -0.26794982 1.6959018 nan
0.010234655 -0.27347764 1.6976428 nan
0.024964156 -0.280177 1.7019525 nan
0.027885737 -0.28537774 1.7028375 nan
0.031791747 -0.29072112 1.7040081 nan
0.031761944 -0.29554626 1.704037 nan
0.0091028819 -0.29726306 1.6975001 nan
0.019895615 -0.30355245 1.7006689 nan
0.015930476 -0.30779973 1.6995556 nan
-0.001808344 -0.31006157 1.6944455 nan
-0.014627635 -0.31296933 1.6907623 nan
-0.01465696 -0.31770679 1.6907907 nan
-0.014686524 -0.32244426 1.6908189 nan
-0.019634662 -0.32644069 1.6894196 nan
-0.019663988 -0.33116886 1.6894479 nan
-0.017725883 -0.33620086 1.6900473 nan
-0.016771017 -0.34108654 1.690361 nan
-0.016800342 -0.34582025 1.6903894 nan
-0.016829668 -0.35055399 1.6904176 nan
-0.016858993 -0.35528776 1.6904459 nan
-0.010002553 -0.36115035 1.6924735 nan
-0.0080646863 -0.36622339 1.6930732 nan
-0.0080940118 -0.37097391 1.6931015 nan
-0.004188715 -0.37639195 1.6942725 nan
-0.00028341881 -0.38182488 1.6954436 nan
-0.00031298271 -0.38659033 1.695472 nan
0.016379179 -0.39428768 1.7003572 nan
0.0084806094 -0.39769021 1.6981002 nan
0.010418237 -0.40282485 1.6987002 nan
0.0094047198 -0.40743279 1.6984432 nan
0.0054410114 -0.41149718 1.6973288 nan
0.0054114475 -0.4162738 1.6973574 nan
0.0053816452 -0.42105046 1.697386 nan
0.0033848893 -0.42545608 1.6968429 nan
-0.00057881942 -0.42947942 1.6957283 nan
0.0082436213 -0.43594819 1.6983289 nan
0.010181011 -0.44111264 1.6989291 -3.1267046e+38
0.0121184 -0.44628462 1.6995293 -2.7534779e+38
0.012088836 -0.45107436 1.699558 -2.900527e+38
0.0061579361 -0.45468372 1.6978716 -2.9007365e+38
0.0062134876 0.46179163 1.6859329 nan
0.0061839237 0.45702431 1.6859612 nan
0.0031970155 0.45178372 1.6851443 nan
-0.015562235 0.44405955 1.6798173 nan
-0.015591322 0.43933326 1.6798456 nan
-0.015620648 0.434607 1.6798738 nan
0.0030789983 0.43273684 1.6852582 nan
0.0030496728 0.42797509 1.6852865 nan
0.0030201089 0.42321336 1.685315 nan
-0.0029236663 0.41758329 1.6836518 nan
-0.021681247 0.41011852 1.6783235 nan
-0.03551048 0.40342957 1.6744044 nan
-0.020754276 0.40082747 1.6786618 nan
-0.021768985 0.39597327 1.6784079 nan
-0.020812688 0.3913936 1.6787181 nan
-0.016899286 0.38721073 1.6798743 nan
-0.012000262 0.38314468 1.6813126 nan
-0.0080870977 0.37893009 1.6824689 nan
-0.013044774 0.37354925 1.681087 nan
-0.017016349 0.3683131 1.6799872 nan
-0.017045675 0.36358872 1.6800154 nan
-0.017074762 0.35886428 1.6800437 nan
-0.017104087 0.35413989 1.6800719 nan
-0.017133413 0.34941548 1.6801002 nan
-0.017162738 0.3446911 1.6801283 nan
-0.017192064 0.33996668 1.6801566 nan
-0.015250384 0.33546829 1.6807491 nan
-0.012322842 0.33107361 1.6816237 nan
-0.014323174 0.32612133 1.6810877 nan
-0.018294511 0.32096168 1.6799874 nan
-0.01635283 0.31645027 1.6805799 nan
-0.018353162 0.31151661 1.6800439 nan
-0.019367633 0.30669227 1.6797898 nan
-0.021367965 0.30177173 1.6792537 nan
-0.019426284 0.29725096 1.6798463 -3.2333564e+38
-0.012557446 0.29320374 1.68185 -3.1143027e+38
-0.0096306195 0.288753 1.682725 -3.1677848e+38
0.054954112 -0.25482988 1.7054859 -3.1410423e+38
0.048035443 -0.25886941 1.7035306 -3.1405729e+38
0.036196291 -0.26228163 1.7001574 nan
0.016485276 -0.26467228 1.6945159 nan
0.008582891 -0.26847589 1.6922762 nan
0.019378008 -0.27464038 1.6954238 nan
0.028204264 -0.28059056 1.6980045 nan
0.03801471 -0.28670385 1.700869 nan
0.037984669 -0.29154021 1.7008979 nan
0.032050908 -0.29557681 1.6992253 nan
0.013325275 -0.29783392 1.6938657 nan
0.022151293 -0.30385691 1.6964468 nan
0.01621777 -0.30783007 1.6947738 nan
0.00044494995 -0.31037322 1.6902643 nan
0.00041538605 -0.3151387 1.6902928 nan
0.00038582215 -0.31990415 1.6903213 nan
-0.018338142 -0.32188886 1.6849601 nan
-0.019351421 -0.32647064 1.6847047 nan
-0.019380746 -0.33119881 1.6847329 nan
-0.017442165 -0.33623081 1.6853285 nan
-0.01747149 -0.34096268 1.6853569 nan
-0.01553291 -0.34600595 1.6859527 nan
-0.015562474 -0.35074154 1.6859808 nan
-0.02051085 -0.35468 1.6845905 nan
-0.018572507 -0.35972887 1.6851861 nan
-0.016633926 -0.36478516 1.685782 nan
-0.012728392 -0.37017894 1.6869454 nan
-0.0078389039 -0.37575451 1.6883926 nan
-0.0059005604 -0.38084257 1.6889887 nan
-0.0059301243 -0.38559681 1.6890171 nan
0.0087967524 -0.39293823 1.6933029 nan
0.0077832355 -0.39754614 1.6930475 nan
0.0067699566 -0.40215033 1.6927923 nan
0.0018220557 -0.40603846 1.6914015 nan
0.0047433986 -0.41134745 1.6922817 nan
0.0047138347 -0.41612223 1.6923102 nan
0.0027168405 -0.42052969 1.691771 nan
0.0036707532 -0.4254863 1.6920834 nan
-0.00029319397 -0.42950958 1.6909763 nan
0.0075464859 -0.4357892 1.693276 nan
0.01243502 -0.44152522 1.6947243 -3.1531851e+38
0.012405456 -0.44631493 1.6947529 -2.7666142e+38
0.012375654 -0.45110464 1.6947815 -2.9003187e+38
0.013329566 -0.45609111 1.6950941 -2.8872357e+38
-0.027979074 0.4608109 1.6713519 nan
-0.010261475 0.45901591 1.6764195 nan
-0.012262999 0.45396104 1.6758877 nan
0.0034824025 0.45175356 1.6803958 nan
-0.015278994 0.44402963 1.6751043 nan
-0.01530832 0.43930334 1.6751325 nan
-0.015337645 0.43457708 1.6751608 nan
0.0033643853 0.43270668 1.6805097 nan
0.0013633383 0.42764804 1.679978 nan
-0.00063770881 0.4225969 1.6794463 nan
-0.0026389945 0.41755322 1.6789147 nan
-0.021398721 0.41008869 1.6736215 nan
-0.036215246 0.40325889 1.6694484 nan
-0.020471511 0.40079761 1.6739581 nan
-0.020500837 0.39608067 1.6739862 nan
-0.018558441 0.39163449 1.6745746 nan
-0.016616283 0.38718084 1.675163 nan
-0.011716544 0.3831147 1.6765921 nan
-0.0097746244 0.37864053 1.6771806 nan
-0.011775195 0.37364721 1.6766486 nan
-0.016733347 0.36828321 1.675276 nan
-0.016762434 0.36355883 1.6753043 nan
-0.014820515 0.35907906 1.6758928 nan
-0.014849841 0.35435092 1.6759212 nan
-0.014879166 0.34962279 1.6759493 nan
-0.012937247 0.34512809 1.6765381 nan
-0.012966572 0.34039623 1.6765664 nan
-0.012995898 0.33566436 1.6765946 nan
-0.012039124 0.33104363 1.6769032 nan
-0.014039933 0.32609138 1.676371 nan
-0.018011747 0.32093179 1.6752781 nan
-0.018040834 0.31620926 1.6753063 nan
-0.017084537 0.31159037 1.6756148 nan
-0.017113863 0.30686596 1.6756431 nan
-0.019113956 0.30194172 1.6751106 nan
-0.018157898 0.29731911 1.6754191 -3.2333037e+38
-0.016215978 0.29278898 1.6760081 -3.1143547e+38
-0.013288914 0.28834569 1.6768775 -3.1677846e+38
0.057184041 -0.25996551 1.7012239 -3.1405729e+38
0.039438546 -0.26267296 1.6961832 nan
0.018740715 -0.26494688 1.6902972 nan
0.015758337 -0.26937398 1.689481 nan
0.021633925 -0.27492246 1.6911998 nan
0.030461373 -0.28087646 1.6937636 nan
0.036336243 -0.28647533 1.6954827 nan
0.036306202 -0.29130796 1.6955116 nan
0.016594233 -0.29347453 1.6899059 nan
0.014596284 -0.29799947 1.689371 nan
0.028343739 -0.30470952 1.6933441 nan
0.022409501 -0.30869383 1.6916825 nan
0.0036826741 -0.31082574 1.6863575 nan
-0.0052034245 -0.31431305 1.6838499 nan
0.018383803 -0.32253537 1.6906414 nan
0.018354001 -0.3273344 1.69067 nan
0.0045483722 -0.33005816 1.6867534 nan
0.0045185699 -0.33483106 1.6867819 nan
-0.0023986686 -0.33854026 1.6848375 nan
-0.0024282325 -0.34330013 1.684866 nan
0.0014780177 -0.34868276 1.6860218 nan
0.0014484538 -0.35345009 1.6860502 nan
-0.0025166858 -0.35757968 1.6849513 nan
-0.018289028 -0.35975882 1.6804695 nan
-0.018318353 -0.36448881 1.6804976 nan
0.0003467215 -0.37235433 1.6858823 nan
0.0042524948 -0.37778732 1.6870387 nan
0.0042229309 -0.38256022 1.6870672 nan
0.004193367 -0.38733315 1.6870956 nan
0.00613171 -0.39245105 1.6876881 nan
0.0061021461 -0.3972277 1.6877166 nan
0.0050886287 -0.40182811 1.687463 nan
0.00014001259 -0.40571249 1.6860818 nan
0.0020783555 -0.41083783 1.6866741 nan
0.0010645998 -0.41542524 1.6864207 nan
-0.00093239418 -0.41982517 1.6858852 nan
-0.00096195808 -0.42458874 1.6859136 nan
0.014748634 -0.43235096 1.690455 nan
0.020621838 -0.43828008 1.6921759 nan
0.010754407 -0.44117323 1.6893839 -3.2065628e+38
0.013675989 -0.4465383 1.6902586 -2.7933028e+38
0.015613855 -0.45171964 1.6908516 -2.8869742e+38
-0.031641662 0.46012771 1.6655507 nan
-0.009977757 0.45898592 1.6716971 nan
-0.011979281 0.45393109 1.671169 nan
0.0037677896 0.45172343 1.6756475 nan
0.0037382257 0.4469617 1.6756759 nan
0.0037086618 0.44219998 1.6757044 nan
0.0036793363 0.43743825 1.6757329 nan
0.0036497724 0.43267655 1.6757612 nan
0.0016484869 0.42761791 1.6752334 nan
-0.0013388979 0.4224202 1.6744272 nan
-0.0023543227 0.41752315 1.6741774 nan
-0.0023838866 0.41277263 1.6742058 nan
-0.02015966 0.40548468 1.6692261 nan
-0.020188985 0.40076774 1.6692543 nan
-0.020218311 0.39605081 1.6692824 nan
-0.018275438 0.3916046 1.669867 nan
-0.016333042 0.38715091 1.6704519 nan
-0.012419163 0.38295308 1.6715932 nan
-0.011462151 0.378351 1.6718998 nan
-0.011491477 0.37361726 1.6719282 nan
-0.01250714 0.36875749 1.6716781 nan
-0.012536465 0.36402562 1.6717063 nan
-0.011579453 0.3594161 1.672013 nan
-0.011608778 0.35468236 1.6720412 nan
-0.011638342 0.34994859 1.6720695 nan
-0.011667668 0.34521487 1.6720979 nan
-0.011696993 0.34048113 1.6721261 nan
-0.011726319 0.33574742 1.6721544 nan
-0.011755644 0.33101368 1.6721827 nan
-0.012770831 0.32617068 1.6719325 nan
-0.016742883 0.32100925 1.6708472 nan
-0.016772209 0.31628484 1.6708753 nan
-0.016801534 0.31156045 1.6709036 nan
-0.016830621 0.30683604 1.6709318 nan
-0.016859947 0.30211166 1.6709601 nan
-0.012946784 0.29777947 1.6721022 -3.2333548e+38
-0.013961493 0.29295141 1.6718521 -3.1409384e+38
-0.014976679 0.28812709 1.6716018 -3.2076608e+38
0.061413109 -0.26046994 1.6974847 -3.1273326e+38
0.041696846 -0.26294413 1.6919181 nan
0.021981301 -0.26534361 1.6863511 nan
0.019983115 -0.26990026 1.6858201 nan
0.021921696 -0.27495289 1.6864085 nan
0.030750336 -0.28090698 1.6889557 nan
0.030720295 -0.28572842 1.6889844 nan
0.032659113 -0.29081276 1.689573 nan
0.015897097 -0.29337153 1.6848441 nan
0.0099623809 -0.29735386 1.6831934 nan
0.030600848 -0.30501413 1.6890997 nan
0.024665894 -0.30900207 1.6874492 nan
0.0098734507 -0.31170058 1.6832793 nan
0.00098639855 -0.31519905 1.6807885 nan
0.025560679 -0.32357728 1.6878154 nan
0.025530877 -0.32838938 1.687844 nan
0.0068026199 -0.33038485 1.6825538 nan
0.006773056 -0.33516151 1.6825823 nan
-0.0011295663 -0.33872232 1.680371 nan
-0.0011588918 -0.34348401 1.6803994 nan
0.0027480733 -0.34886864 1.6815479 nan
-0.0041701184 -0.35253477 1.6796162 nan
-0.0041996823 -0.35729089 1.6796446 nan
-0.022925792 -0.35898224 1.6743524 nan
-0.022955118 -0.36370289 1.6743805 nan
-0.0042881356 -0.37155929 1.6797299 nan
0.011426748 -0.37898582 1.6842394 nan
0.011396945 -0.38377181 1.684268 nan
0.0064476146 -0.38770464 1.6828961 nan
0.0024822366 -0.39179125 1.6818044 nan
0.0083561549 -0.39760667 1.6835135 nan
0.008326591 -0.40238702 1.6835421 nan
0.0033772599 -0.40627694 1.6821699 nan
0.0013797892 -0.41068807 1.6816382 nan
-0.004553257 -0.41436437 1.6799858 nan
0.00033694634 -0.420039 1.6814151 nan
-0.00067657104 -0.4246189 1.6811633 nan
0.010116638 -0.43144417 1.6842738 nan
0.016974034 -0.43755338 1.6862638 nan
0.02875072 -0.44464445 1.6896551 -3.2199072e+38
0.030688347 -0.44985002 1.6902444 -2.793303e+38
0.03262645 -0.4550631 1.6908337 -2.8870264e+38
0.040466845 -0.46146423 1.6931044 -2.900528e+38
-0.033332765 0.45977128 1.6603167 nan
-0.011666476 0.45863301 1.6664221 nan
-0.011695801 0.45390114 1.6664505 nan
0.0040529384 0.45169327 1.670899 nan
0.0030375135 0.44677562 1.6706512 nan
0.003994049 0.44216982 1.6709559 nan
0.0039644851 0.43740809 1.6709844 nan
0.0039349212 0.43264639 1.6710129 nan
0.0019333971 0.42758781 1.6704886 nan
-0.0010542261 0.42239013 1.669688 nan
-0.0020698893 0.41749308 1.6694402 nan
-0.0020992148 0.41274256 1.6694685 nan
-0.019877134 0.40545481 1.6645223 nan
-0.019906459 0.40073788 1.6645505 nan
-0.017963348 0.3962954 1.6651313 nan
-0.016020713 0.39184541 1.6657125 nan
-0.016050039 0.38712102 1.6657406 nan
-0.011149346 0.38305476 1.667151 nan
-0.011178671 0.37832102 1.6671793 nan
-0.011207997 0.37358728 1.6672076 nan
-0.011237322 0.36885357 1.6672359 nan
-0.011266648 0.36411983 1.6672642 nan
-0.011295973 0.35938612 1.6672925 nan
-0.011325299 0.35465237 1.6673207 nan
-0.011354624 0.3499186 1.6673491 nan
-0.01138395 0.34518489 1.6673774 nan
-0.011413275 0.34045115 1.6674056 nan
-0.011442601 0.33571744 1.667434 nan
-0.011471926 0.3309837 1.6674621 nan
-0.011501252 0.32624996 1.6674905 nan
-0.012516676 0.32140887 1.6672423 nan
-0.012546002 0.316677 1.6672704 nan
-0.012575327 0.31194514 1.6672988 nan
-0.012604653 0.30721325 1.667327 nan
-0.012633978 0.30248138 1.6673553 nan
-0.011677205 0.29784757 1.6676602 -3.2334063e+38
-0.01170653 0.29311383 1.6676885 -3.1276465e+38
-0.011735856 0.28838009 1.6677167 -3.1943688e+38
0.069580853 -0.26144809 1.6948423 -3.1273853e+38
0.041987002 -0.26297477 1.6870897 nan
0.041956961 -0.26781672 1.6871185 nan
0.02223927 -0.27017868 1.6815885 nan
0.022209706 -0.27498332 1.6816173 nan
0.03300792 -0.28119299 1.6847036 nan
0.031993449 -0.28588852 1.6844544 nan
0.01129228 -0.28795111 1.6786455 nan
0.013231576 -0.29300186 1.67923 nan
0.01024896 -0.29738414 1.6784246 nan
0.030889811 -0.30504465 1.6842918 nan
0.024954142 -0.30903253 1.6826524 nan
0.014097274 -0.31229404 1.6796227 nan
0.001272024 -0.31522921 1.6760364 nan
0.025849165 -0.32360774 1.6830168 nan
0.025819125 -0.32841983 1.6830454 nan
0.0061045303 -0.33026686 1.6775123 nan
0.0060749664 -0.33504164 1.6775408 nan
0.00014001259 -0.33890447 1.6759007 nan
0.0001106871 -0.34366804 1.6759291 nan
-0.00090330711 -0.34827593 1.6756794 nan
-0.0048691616 -0.35240731 1.6745952 nan
-0.0039147721 -0.35732102 1.6749018 nan
-0.024611412 -0.35868946 1.6690886 nan
-0.024640737 -0.36340645 1.6691169 nan
-0.0059713707 -0.3712593 1.6744306 nan
0.0087609896 -0.37851539 1.6786323 nan
0.012667955 -0.38397092 1.6797736 nan
0.013622583 -0.3889294 1.6800805 nan
0.011624397 -0.39337406 1.6795527 nan
0.021435561 -0.39990386 1.6823637 nan
0.021405997 -0.4047085 1.6823925 nan
0.0066154613 -0.40684149 1.6782471 nan
0.0056017055 -0.41143814 1.6779974 nan
-0.0023002017 -0.41475821 1.6757996 nan
0.0006225718 -0.42006916 1.6766629 nan
0.0025611531 -0.42520577 1.677248 nan
0.010403217 -0.43147445 1.6795032 nan
0.01529342 -0.43720508 1.6809235 nan
0.029039444 -0.44467494 1.684849 -3.1799261e+38
0.029009642 -0.44949451 1.6848778 -2.7399256e+38
0.033899367 -0.45528859 1.6862985 -2.8736302e+38
0.040757 -0.46149486 1.6882759 -2.913872e+38
-0.011382996 0.45860305 1.6617036 nan
-0.011412322 0.45387119 1.6617317 nan
0.0043383255 0.45166314 1.6661506 nan
0.0043087616 0.44690141 1.6661791 nan
0.0042794361 0.44213969 1.6662076 nan
0.0032637727 0.43722579 1.6659615 nan
0.0032342088 0.43246594 1.66599 nan
0.0012322081 0.42740926 1.6654694 nan
-0.0037280906 0.42192045 1.6641254 nan
-0.003757416 0.41717368 1.6641538 nan
-0.0037867415 0.41242689 1.6641822 nan
-0.020580469 0.40528405 1.659544 nan
-0.020609794 0.40056896 1.6595721 nan
-0.017680584 0.39626554 1.660424 nan
-0.015737711 0.39181548 1.6610012 nan
-0.032530725 0.38482195 1.6563621 nan
-0.028615413 0.38065571 1.6574883 nan
-0.0286445 0.37595558 1.6575165 nan
-0.028673587 0.37125543 1.6575446 nan
-0.028702674 0.36655527 1.6575726 nan
-0.028731762 0.36185515 1.6576006 nan
-0.028761087 0.35715497 1.6576288 nan
-0.028790174 0.35245481 1.6576569 nan
-0.028819261 0.34775469 1.657685 nan
-0.028848348 0.34305453 1.6577131 nan
-0.028877435 0.33835441 1.6577411 nan
-0.011158883 0.33568749 1.6627134 nan
-0.011188208 0.33095375 1.6627417 nan
-0.011217534 0.32622001 1.66277 nan
-0.012233197 0.32137892 1.6625235 nan
-0.012262522 0.31664705 1.6625519 nan
-0.012291848 0.31191519 1.6625801 nan
-0.012321173 0.3071833 1.6626084 nan
-0.012350499 0.30245143 1.6626366 nan
-0.011393487 0.29781762 1.6629397 -3.2334071e+38
-0.01240915 0.2929877 1.6626933 -3.1409384e+38
-0.012438475 0.28825584 1.6627215 -3.2076608e+38
0.050183594 -0.25911078 1.6844407 -3.12749e+38
0.044246256 -0.26324597 1.6828134 nan
0.022557082 -0.26540443 1.6767687 nan
0.022527279 -0.27020907 1.6767974 nan
0.020528616 -0.27476195 1.6762738 nan
0.029358925 -0.28071254 1.6787875 nan
0.029329123 -0.28553024 1.6788163 nan
0.014532627 -0.28837582 1.6747031 nan
0.014503063 -0.29316553 1.6747317 nan
0.0065978183 -0.29687357 1.672551 nan
0.025272192 -0.30425271 1.6778269 nan
0.02524239 -0.30906296 1.6778555 nan
0.021274867 -0.31331003 1.6767796 nan
0.0064793243 -0.31597272 1.6726651 nan
0.026137413 -0.32363823 1.6782181 nan
0.026107611 -0.32845032 1.6782467 nan
0.011312307 -0.33103842 1.674132 nan
0.011282743 -0.33582252 1.6741606 nan
0.0014098299 -0.33908662 1.6714267 nan
0.0013805045 -0.34385207 1.6714551 nan
0.0013509406 -0.34861752 1.6714835 nan
-0.0016314375 -0.35291022 1.6706831 nan
0.00030738243 -0.35798895 1.6712642 nan
-0.0075964318 -0.36146194 1.6690822 nan
-0.0076257573 -0.36621058 1.6691105 nan
0.00021892914 -0.37227973 1.6713496 nan
0.014952959 -0.37954724 1.6755233 nan
0.018859925 -0.38501397 1.6766573 nan
0.021783175 -0.39032495 1.6775151 nan
0.024705948 -0.3956472 1.678373 nan
0.026644291 -0.40080622 1.6789546 nan
0.024646344 -0.40526766 1.6784304 nan
0.0069015636 -0.40687171 1.6734838 nan
0.0058878078 -0.41146836 1.6732359 nan
0.0019214762 -0.41551578 1.6721587 nan
0.00090795883 -0.42009932 1.6719108 nan
0.0028467786 -0.42523596 1.6724921 nan
0.0087216506 -0.43112984 1.6741794 nan
0.013612808 -0.43685681 1.6755905 nan
0.027360024 -0.44432309 1.6794899 -3.139789e+38
0.03126651 -0.44991109 1.6806247 -2.713185e+38
0.035172999 -0.45551413 1.6817596 -2.8735785e+38
0.039079249 -0.46113193 1.6828945 -2.9005797e+38
-0.034743488 0.45938522 1.6504163 nan
-0.012085616 0.45841163 1.6567124 nan
-0.013101517 0.45352206 1.656468 nan
0.0046237125 0.45163298 1.6614022 nan
0.0045941486 0.44687125 1.6614306 nan
-0.0062848912 0.44041559 1.6584609 nan
0.0045352592 0.4373478 1.6614876 nan
0.0025330198 0.43228555 1.6609708 nan
0.00053101906 0.42723075 1.660454 nan
-0.0014709817 0.42218351 1.6599373 nan
-0.0054456578 0.41685429 1.6588751 nan
-0.0054749832 0.41211122 1.6589034 nan
-0.022270618 0.40497231 1.6542968 nan
-0.022299943 0.40026096 1.6543249 nan
-0.01641172 0.39637282 1.6559892 nan
-0.034192741 0.38921431 1.6511092 nan
-0.028304515 0.38532612 1.6527733 nan
-0.028333841 0.38062596 1.6528013 nan
-0.028362928 0.37592584 1.6528294 nan
-0.029378114 0.3710978 1.6525848 nan
-0.030393301 0.36627355 1.6523402 nan
-0.030422388 0.36157712 1.6523683 nan
-0.028479276 0.35712522 1.6529418 nan
-0.028508363 0.35242507 1.6529698 nan
-0.028537689 0.34772494 1.652998 nan
-0.028566776 0.34302479 1.6530261 nan
-0.028595863 0.33832467 1.6530541 nan
-0.010875403 0.33565751 1.6579928 nan
-0.010904728 0.33092377 1.6580212 nan
-0.010934054 0.32619002 1.6580495 nan
-0.015893636 0.32091954 1.6567135 nan
-0.015922962 0.31619513 1.6567417 nan
-0.015952287 0.31147075 1.65677 nan
-0.014009654 0.30694985 1.6573439 nan
-0.012067019 0.30242148 1.657918 nan
-0.011110007 0.29778764 1.6582191 -3.2467002e+38
-0.012125432 0.29295775 1.6579745 -3.1541792e+38
-0.012154757 0.28822589 1.6580029 -3.2342458e+38
0.061305583 -0.26044416 1.6826136 -3.1407822e+38
0.061275303 -0.26532158 1.6826427 nan
0.043521941 -0.26800019 1.6777359 nan
0.0434919 -0.27284402 1.6777649 nan
0.022785487 -0.27504414 1.6720349 nan
0.02964765 -0.28074303 1.6739833 nan
0.029617609 -0.28556073 1.6740121 nan
0.03352648 -0.29090437 1.675138 nan
0.01478988 -0.29319584 1.6699555 nan
0.0088527808 -0.29717427 1.6683383 nan
0.02556044 -0.30428317 1.67303 nan
0.025530638 -0.30909342 1.6730587 nan
0.021562638 -0.31334043 1.6719903 nan
0.0067654266 -0.31600294 1.6679038 nan
0.028394522 -0.3239578 1.6739681 nan
0.02836472 -0.32877362 1.6739968 nan
0.020459237 -0.33240321 1.6718307 nan
0.017476143 -0.33675367 1.6710362 nan
0.0095708976 -0.3403329 1.6688696 nan
0.0016658915 -0.34388226 1.666703 nan
0.0016363276 -0.34864771 1.6667315 nan
0.00062233338 -0.35325554 1.6664855 nan
0.00059300789 -0.35801911 1.6665139 nan
-0.0053428994 -0.36181468 1.6648957 nan
-0.0053722248 -0.36656708 1.664924 nan
0.00050431618 -0.37230989 1.6665993 nan
0.015240015 -0.37957758 1.6707451 nan
0.019147458 -0.38504434 1.6718717 nan
0.022070946 -0.39035538 1.6727239 nan
0.02696258 -0.39602271 1.6741252 nan
0.026932778 -0.40083668 1.674154 nan
0.024934592 -0.40529811 1.6736336 nan
0.0091562876 -0.40725818 1.6692696 nan
0.0061739101 -0.41149858 1.6684744 nan
0.0031917703 -0.41572776 1.6676793 nan
-0.0017592298 -0.41957831 1.6663349 nan
0.0031326425 -0.42526615 1.6677363 nan
0.0031030786 -0.43003532 1.6677648 nan
0.0079942355 -0.43575114 1.6691663 nan
0.017806591 -0.44244164 1.6719413 -3.1130485e+38
0.029587092 -0.44955555 1.6752656 -2.6998925e+38
0.032510102 -0.45495987 1.6761184 -2.8737337e+38
0.032480061 -0.45978504 1.6761472 -2.9273202e+38
-0.034462631 0.45935556 1.6457423 nan
-0.016734539 0.45757449 1.6506423 nan
-0.01775044 0.45269424 1.6503999 nan
0.0029361856 0.45128739 1.6561124 nan
-0.003998457 0.44543847 1.6542459 nan
-0.012906014 0.43930769 1.6518379 nan
0.0048204078 0.43731767 1.6567392 nan
0.0018315924 0.43210518 1.6559553 nan
-0.0001704084 0.42705229 1.6554422 nan
0.00078660378 0.42244643 1.6557415 nan
-0.0051614628 0.41682425 1.6541452 nan
-0.0051907883 0.41208118 1.6541736 nan
-0.02198833 0.40494251 1.6495986 nan
-0.020044742 0.40050927 1.6501684 nan
-0.016128717 0.39634293 1.6512798 nan
-0.034898221 0.38904929 1.6461624 nan
-0.028022943 0.38529634 1.6480863 nan
-0.02805203 0.38059619 1.6481143 nan
-0.029067455 0.37576634 1.6478716 nan
-0.029096542 0.37106806 1.6478996 nan
-0.02813953 0.36649576 1.6481986 nan
-0.028168617 0.36179563 1.6482267 nan
-0.028197704 0.35709545 1.6482549 nan
-0.028226791 0.3523953 1.6482829 nan
-0.028255878 0.34769517 1.6483109 nan
-0.028285204 0.34299502 1.648339 nan
-0.028314291 0.33829489 1.6483672 nan
-0.010591685 0.33562756 1.6532724 nan
-0.01062101 0.33089381 1.6533006 nan
-0.010650336 0.32616007 1.6533289 nan
-0.015610634 0.32088962 1.6520023 nan
-0.015639959 0.31616521 1.6520306 nan
-0.015669046 0.31144083 1.6520588 nan
-0.015698371 0.30671641 1.6520871 nan
-0.013755499 0.30219176 1.6526573 nan
-0.013784825 0.29746363 1.6526856 -3.2732852e+38
0.005907835 0.2946583 1.6581349 -3.1541796e+38
0.0048921718 0.28979856 1.6578922 -3.2342462e+38
0.04190284 -0.25810632 1.6723032 -3.1540741e+38
0.041872799 -0.26294643 1.672332 nan
0.043812096 -0.26803085 1.6729057 nan
0.047721207 -0.2733708 1.6740241 nan
0.023073258 -0.27507454 1.6672437 nan
0.029936137 -0.28077355 1.669179 nan
0.030891242 -0.28572088 1.6694802 nan
0.011167825 -0.28791046 1.6640608 nan
0.011138261 -0.29269269 1.6640894 nan
0.0071697845 -0.29693404 1.6630282 nan
0.026833357 -0.30445075 1.6685057 nan
0.026803555 -0.30926284 1.6685344 nan
0.021850409 -0.31337082 1.6672009 nan
0.0050824299 -0.3157478 1.6625974 nan
0.028683247 -0.32398829 1.6691657 nan
0.028653206 -0.32880411 1.6691945 nan
0.020747008 -0.33243358 1.6670432 nan
0.014809907 -0.33633357 1.6654367 nan
0.0059190406 -0.33975506 1.6630125 nan
-1.7820512e-05 -0.34360459 1.6614058 nan
0.0019219531 -0.34867787 1.6619793 nan
-0.0010611402 -0.35297048 1.66119 nan
-0.0010907041 -0.35773033 1.6612185 nan
0.00084883103 -0.36281291 1.6617922 nan
-0.0050875531 -0.36659715 1.660185 nan
0.0037434709 -0.37283531 1.6626668 nan
0.019464793 -0.38027567 1.6670575 nan
0.01943499 -0.3850747 1.6670861 nan
0.022358956 -0.39038578 1.6679327 nan
0.027251067 -0.39605319 1.6693248 nan
0.027221264 -0.40086716 1.6693535 nan
0.027191462 -0.40568113 1.6693823 nan
0.016333165 -0.40853548 1.6664114 nan
0.0064600124 -0.4115288 1.663713 nan
0.0034773957 -0.41575795 1.6629233 nan
0.0034478318 -0.42052716 1.6629519 nan
0.0034185064 -0.42529634 1.6629803 nan
0.0033889425 -0.43006551 1.6630089 nan
0.0082805762 -0.43578142 1.6644012 nan
0.0072668209 -0.44036868 1.6641569 -3.1528736e+38
0.015111507 -0.44668996 1.6663678 -2.7131331e+38
0.028861584 -0.45421064 1.6702154 -2.9136631e+38
0.032769263 -0.45981556 1.6713355 -2.9673015e+38
-0.016451774 0.4575446 1.6459348 nan
0.0012775076 0.45569614 1.6508017 nan
0.0012481821 0.45094189 1.65083 nan
0.0031917703 0.44649929 1.651396 nan
-0.0057167397 0.44035557 1.6490049 nan
0.0051057949 0.43728751 1.6519907 nan
0.0011304034 0.43192482 1.6509436 nan
0.0011008395 0.42717057 1.6509721 nan
0.001071514 0.42241633 1.6510005 nan
-0.00093120208 0.41737276 1.6504911 nan
-0.00096052757 0.41262224 1.6505195 nan
-0.019732891 0.40519449 1.6454384 nan
-0.019762216 0.40047941 1.6454666 nan
-0.018804966 0.3959015 1.6457636 nan
-0.03659004 0.388749 1.6409507 nan
-0.030700622 0.38486633 1.6425924 nan
-0.028756795 0.38043487 1.6431584 nan
-0.028785883 0.37573659 1.6431865 nan
-0.027828632 0.37116617 1.6434835 nan
-0.027857957 0.36646602 1.6435115 nan
-0.033805311 0.36102122 1.6419256 nan
-0.033834159 0.35633224 1.6419536 nan
-0.027945219 0.35236555 1.6435959 nan
-0.027974306 0.34766543 1.6436239 nan
-0.028003393 0.34296528 1.643652 nan
-0.02803248 0.33826515 1.6436801 nan
-0.030034242 0.33333918 1.6431701 nan
-0.030063329 0.32864276 1.6431981 nan
-0.011353194 0.32602093 1.6483393 nan
-0.015327393 0.32085973 1.6472912 nan
-0.015356719 0.31613532 1.6473193 nan
-0.015386044 0.31141093 1.6473476 nan
-0.01541537 0.30668652 1.6473758 nan
-0.013472258 0.30216184 1.6479423 nan
-0.013501584 0.2974337 1.6479707 -3.260045e+38
-0.013530909 0.29270557 1.6479988 -3.1674721e+38
0.024465146 -0.25600487 1.662608 -3.1808138e+38
0.026404919 -0.26105198 1.6631777 nan
0.034254134 -0.26683965 1.6653705 nan
0.041117966 -0.27253318 1.6672928 nan
0.026315512 -0.27548268 1.6632639 nan
0.02628571 -0.28029293 1.6632926 nan
0.0075448169 -0.28263992 1.6581812 nan
0.00948459 -0.28767771 1.6587508 nan
0.0084703574 -0.29232284 1.6585088 nan
0.011395038 -0.29750523 1.6593492 nan
0.028106274 -0.30461833 1.6639776 nan
0.027091803 -0.3092933 1.6637357 nan
0.02213818 -0.31340122 1.6624116 nan
0.0053682937 -0.31577799 1.6578397 nan
0.031925738 -0.32445246 1.6651752 nan
0.031895936 -0.32927388 1.665204 nan
0.021034541 -0.33246398 1.6622558 nan
0.013127388 -0.33606353 1.6601191 nan
-0.0006875383 -0.33872104 1.6563582 nan
-0.00071686378 -0.34348091 1.6563866 nan
-0.00074642769 -0.34824076 1.6564151 nan
-0.00077599159 -0.35300061 1.6564436 nan
0.001163782 -0.35807943 1.6570134 nan
0.008026422 -0.36397257 1.658937 nan
0.014889062 -0.36989182 1.6608608 nan
0.01682836 -0.37501174 1.6614308 nan
0.020737233 -0.38047302 1.6625426 nan
0.022676529 -0.38561156 1.6631129 nan
0.022646727 -0.3904162 1.6631415 nan
0.027539553 -0.39608365 1.6645243 nan
0.027509751 -0.40089762 1.664553 nan
0.027479948 -0.40571159 1.6645818 nan
0.024496617 -0.40999109 1.663798 nan
0.016590657 -0.41335925 1.66166 nan
0.0057318821 -0.41615191 1.6587093 nan
0.0047181263 -0.42074111 1.6584669 nan
0.0037041318 -0.42532653 1.6582246 nan
0.0056431904 -0.43047071 1.6587949 nan
0.0095513472 -0.43600103 1.6599069 nan
-0.010166823 -0.436957 1.6545173 -3.1930618e+38
0.01047665 -0.44575486 1.660235 -2.7531661e+38
0.033088267 -0.45502096 1.666495 -2.9270081e+38
0.033058465 -0.45984614 1.6665238 -2.9673017e+38
0.0015919817 0.46042028 1.6460322 nan
0.0015624178 0.45566604 1.6460607 nan
0.0015330923 0.45091179 1.6460891 nan
0.0034769189 0.44646916 1.6466514 nan
-0.0054327832 0.44032556 1.6442771 nan
0.0053911819 0.43725738 1.6472423 nan
