# .PCD v0.7 - Point Cloud Data file format
VERSION 0.7
FIELDS x y z rgb
SIZE 4 4 4 4
TYPE F F F F
COUNT 1 1 1 1
WIDTH 1318
HEIGHT 1
VIEWPOINT 0 0 0 1 0 0 0
POINTS 1318
DATA ascii
2.3671055 0.11918476 0.71846527 nan
2.3659263 0.11406654 0.71858537 nan
2.3637412 0.10900696 0.7187947 nan
2.4095252 -0.44943592 0.71640414 nan
2.3853652 -0.44865891 0.71854806 nan
2.3901858 -0.4551715 0.71813935 nan
2.3930073 -0.46118996 0.71790677 nan
2.3718503 -0.46102336 0.71978581 nan
2.3736737 -0.46675947 0.71964103 nan
2.3505223 -0.46595523 0.72169524 nan
2.3503489 -0.47113213 0.72172618 nan
2.3252048 -0.469668 0.72395551 nan
2.3250329 -0.47479829 0.72398627 nan
2.324861 -0.47992852 0.7240169 nan
2.3226914 -0.48451629 0.72422338 nan
2.3225198 -0.48964283 0.72425407 nan
2.3193524 -0.49394438 0.72454834 nan
2.3371534 -0.50404835 0.72299731 nan
2.3399758 -0.51003885 0.72276455 nan
2.339803 -0.51519895 0.72279543 nan
2.3266525 -0.51668763 0.72396815 nan
2.3304732 -0.52296054 0.72364753 nan
2.3303008 -0.52810383 0.72367829 nan
2.3261361 -0.53209507 0.72406024 nan
2.325964 -0.53723097 0.72409093 nan
2.3257921 -0.54236674 0.72412169 nan
2.3266177 -0.54779613 0.72406459 nan
2.3034954 -0.54613781 0.72611374 nan
2.3043222 -0.55153 0.72605646 nan
2.3041515 -0.55662668 0.72608685 nan
2.3109646 -0.56383097 0.72550333 nan
2.3127882 -0.56954658 0.72535843 nan
2.3126168 -0.57466006 0.725389 nan
2.315438 -0.58069348 0.72515649 nan
2.2763677 -0.5737797 0.72860658 nan
2.2552547 -0.57230771 0.73047781 nan
2.2969725 -0.59042978 0.72682619 nan
2.3237269 -0.60399699 0.72449017 nan
2.3155775 -0.60660481 0.72522193 nan
2.3154061 -0.61172569 0.72525257 nan
2.2494307 -0.59574485 0.73106557 nan
2.2542479 -0.60235071 0.73065746 nan
2.2540803 -0.60735786 0.73068738 nan
2.2539124 -0.61236501 0.7307173 nan
2.407542 0.26397499 0.70924127 nan
2.4043431 0.25874099 0.70954674 nan
2.3961058 0.25353172 0.71030891 nan
2.3979464 0.24830654 0.71015739 nan
2.3977716 0.24308679 0.71018863 nan
2.3955815 0.23788363 0.71040249 nan
2.3954067 0.23266758 0.71043366 nan
2.4032915 0.22735527 0.70973438 nan
2.4081533 0.22205481 0.70930916 nan
2.3989117 0.21695644 0.71016204 nan
2.3997438 0.21171531 0.71010202 nan
2.3975546 0.20652893 0.71031582 nan
2.4034226 0.20117915 0.70979947 nan
2.4082823 0.19583021 0.70937455 nan
2.4050856 0.19066334 0.7096796 nan
2.3998754 0.18556155 0.71016699 nan
2.375535 0.18102598 0.71238732 nan
2.3733478 0.17590488 0.71260071 nan
2.3852553 0.17033556 0.71153742 nan
2.3810544 0.1652721 0.7119332 nan
2.3577275 0.16091284 0.71406114 nan
2.3625879 0.15557137 0.71363616 nan
2.3704669 0.15009122 0.71293783 nan
2.3733132 0.14479059 0.71269542 nan
2.3932672 0.13873523 0.71090388 nan
2.4061744 0.13292451 0.70975065 nan
2.4059989 0.12768236 0.709782 nan
2.3887179 0.12327887 0.71136183 nan
2.3674145 0.11914356 0.71330565 nan
2.3722715 0.11370698 0.71288127 nan
2.3710918 0.1085813 0.71300328 nan
2.4098408 -0.44947806 0.71113104 nan
2.3856783 -0.44870064 0.7133196 nan
2.3904994 -0.45521334 0.71290159 nan
2.3703382 -0.45533624 0.71472996 nan
2.3501794 -0.45538458 0.71655798 nan
2.3510051 -0.46081963 0.71649909 nan
2.3288522 -0.46023419 0.71850604 nan
2.32868 -0.46537003 0.71853673 nan
2.3255112 -0.46970883 0.71883684 nan
2.3253393 -0.47483912 0.71886754 nan
2.3251674 -0.47996935 0.71889818 nan
2.3229978 -0.48455712 0.7191084 nan
2.3228259 -0.48968366 0.7191391 nan
2.3226542 -0.49481019 0.71916974 nan
2.340457 -0.50491989 0.71758527 nan
2.3402841 -0.51007998 0.71761608 nan
2.3401113 -0.51524007 0.71764696 nan
2.3269594 -0.51672852 0.71884382 nan
2.3307805 -0.52300143 0.71851581 nan
2.3306081 -0.52814472 0.71854657 nan
2.326443 -0.53213596 0.71893597 nan
2.3262711 -0.53727186 0.71896666 nan
2.3260989 -0.54240763 0.71899736 nan
2.3269248 -0.54783702 0.71893847 nan
2.3037996 -0.54617846 0.72103041 nan
2.3046267 -0.55157065 0.72097123 nan
2.304456 -0.55666733 0.72100168 nan
2.3112698 -0.56387162 0.7204051 nan
2.316087 -0.5704962 0.71998781 nan
2.3159156 -0.57561517 0.72001839 nan
2.3157439 -0.58073425 0.72004902 nan
2.2766693 -0.57381988 0.72357166 nan
2.2555537 -0.57234752 0.72548193 nan
2.2972765 -0.59047031 0.72175211 nan
2.3210418 -0.60309541 0.71963441 nan
2.3158836 -0.60664558 0.72011256 nan
2.315712 -0.61176646 0.7201432 nan
2.2517235 -0.59642422 0.72590005 nan
2.2545471 -0.60239053 0.72566158 nan
2.2543795 -0.60739768 0.7256915 nan
2.2542117 -0.61240482 0.72572142 nan
2.407855 0.26393327 0.70401645 nan
2.405664 0.25869846 0.7042343 nan
2.3974252 0.25348744 0.70501143 nan
2.3992662 0.24826035 0.70485616 nan
2.3980834 0.24304518 0.70498061 nan
2.3979084 0.23782542 0.70501179 nan
2.3977337 0.23260567 0.70504302 nan
2.4015889 0.22733769 0.70470154 nan
2.4064512 0.22204089 0.70426697 nan
2.402246 0.21686748 0.70467091 nan
2.3990488 0.21169132 0.70498157 nan
2.3988738 0.20646782 0.7050128 nan
2.4037352 0.20113745 0.70457846 nan
2.4055741 0.19585815 0.70442355 nan
2.4053986 0.19062161 0.70445478 nan
2.4001877 0.1855199 0.70495158 nan
2.3778586 0.18092702 0.70703048 nan
2.376678 0.17577152 0.70715451 nan
2.3895938 0.17016387 0.70597583 nan
2.3843851 0.16512744 0.70647216 nan
2.360049 0.16079922 0.70873594 nan
2.3659163 0.15541577 0.70820868 nan
2.3727896 0.14996994 0.70758849 nan
2.3746293 0.14470743 0.70743346 nan
2.3945854 0.13864991 0.70560479 nan
2.4064877 0.13288274 0.70452029 nan
2.406312 0.1276406 0.70455164 nan
2.391042 0.12313865 0.70597726 nan
2.3677235 0.11910236 0.70814604 nan
2.3725812 0.1136657 0.70771229 nan
2.3714013 0.10854004 0.70783621 nan
2.4131553 -0.45027253 0.70558262 nan
2.3879902 -0.44924763 0.70790768 nan
2.3708243 -0.45016548 0.70949829 nan
2.3706496 -0.45537773 0.70952946 nan
2.3504887 -0.45542583 0.71139467 nan
2.3513145 -0.46086088 0.71133387 nan
2.329159 -0.46027514 0.71338183 nan
2.3289871 -0.46541098 0.71341252 nan
2.3477972 -0.47559443 0.71170175 nan
2.3256459 -0.47488001 0.71374887 nan
2.3234758 -0.47947147 0.71396279 nan
2.3203075 -0.48378417 0.71426833 nan
2.3201361 -0.4889051 0.71429896 nan
2.3199644 -0.49402598 0.7143296 nan
2.3247864 -0.5005312 0.71390224 nan
2.3336022 -0.50817001 0.71310866 nan
2.3334298 -0.51331711 0.71313947 nan
2.3272662 -0.51676941 0.71371961 nan
2.3270941 -0.5219053 0.7137503 nan
2.3269219 -0.52704108 0.713781 nan
2.3027904 -0.52526367 0.71600825 nan
2.3026197 -0.53035474 0.7160387 nan
2.3024492 -0.53544581 0.7160691 nan
2.3262336 -0.54758453 0.71390384 nan
2.302108 -0.54562807 0.71613002 nan
2.3049314 -0.55161119 0.715886 nan
2.3067565 -0.55730641 0.71573359 nan
2.3115752 -0.56391239 0.71530688 nan
2.3163929 -0.57053697 0.71488023 nan
2.3162215 -0.57565594 0.71491086 nan
2.3160498 -0.58077502 0.71494144 nan
2.3019116 -0.5815742 0.71625167 nan
2.2768018 -0.57890642 0.71856683 nan
2.2985778 -0.59082329 0.71658671 nan
2.3223457 -0.60345042 0.71442437 nan
2.3161895 -0.60668635 0.71500313 nan
2.3160179 -0.61180735 0.71503377 nan
2.2540166 -0.59710348 0.72072703 nan
2.2548463 -0.60243046 0.72066569 nan
2.2546785 -0.60743761 0.72069561 nan
2.2545109 -0.61244476 0.72072554 nan
2.4011111 0.26388463 0.69945753 nan
2.3979118 0.25866377 0.69977403 nan
2.397737 0.25344586 0.69980526 nan
2.3995783 0.24821874 0.69964629 nan
2.3994033 0.24299712 0.69967753 nan
2.3982203 0.23778383 0.69980383 nan
2.3990533 0.23255387 0.69973993 nan
2.4049246 0.22725984 0.69920099 nan
2.3835893 0.22231954 0.70122772 nan
2.3874452 0.21706273 0.70087874 nan
2.3852563 0.21189693 0.70109987 nan
2.3901191 0.20660192 0.700656 nan
2.3939741 0.20130965 0.70030719 nan
2.4028649 0.19588619 0.69948369 nan
2.4006753 0.19070548 0.69970489 nan
2.3974788 0.18555921 0.70002097 nan
2.3751473 0.18097225 0.70214075 nan
2.3739665 0.17582236 0.70226657 nan
2.389905 0.17012237 0.70077902 nan
2.3846958 0.16508602 0.70128459 nan
2.3885489 0.15974154 0.70093614 nan
2.3913949 0.15442032 0.70068264 nan
2.3962541 0.14900781 0.70023948 nan
2.3960791 0.14378619 0.70027071 nan
2.392884 0.13869585 0.70058644 nan
2.3987486 0.13320602 0.70004869 nan
2.39958 0.12793131 0.69998509 nan
2.3893406 0.12319584 0.70096445 nan
2.3881598 0.11803663 0.70109046 nan
2.3930163 0.1125626 0.70064759 nan
2.3928416 0.10734469 0.70067883 nan
2.420469 -0.45206997 0.69964862 nan
2.4202914 -0.45737365 0.69968033 nan
2.3731349 -0.45071605 0.70411056 nan
2.3729601 -0.45593205 0.70414174 nan
2.3507979 -0.45546708 0.70623136 nan
2.3516238 -0.46090212 0.70616865 nan
2.3294659 -0.46031603 0.7082575 nan
2.329294 -0.46545187 0.70828819 nan
2.3261244 -0.46979061 0.70859945 nan
2.3239539 -0.47438571 0.70881718 nan
2.320785 -0.47870401 0.70912832 nan
2.3206136 -0.48382494 0.7091589 nan
2.3424184 -0.49495515 0.70713317 nan
2.3422453 -0.50011706 0.70716405 nan
2.3200989 -0.49918768 0.70925081 nan
2.3199272 -0.5043087 0.70928144 nan
2.3247492 -0.51083267 0.7088449 nan
2.3245773 -0.51596284 0.70887554 nan
2.3274009 -0.52194619 0.70862597 nan
2.3032651 -0.52021313 0.71089822 nan
2.3030946 -0.5253042 0.71092862 nan
2.3079157 -0.53184497 0.71049219 nan
2.3077447 -0.53694534 0.71052271 nan
2.3075738 -0.54204571 0.71055323 nan
2.3093996 -0.54773724 0.71039701 nan
2.3092287 -0.55284142 0.71042752 nan
2.3100555 -0.55824482 0.71036476 nan
2.3138762 -0.56455529 0.71002203 nan
2.3186946 -0.57118368 0.70958614 nan
2.3185229 -0.57630646 0.70961672 nan
2.3163557 -0.58081579 0.70983398 nan
2.3042111 -0.58223188 0.71098363 nan
2.2790987 -0.57956755 0.71334541 nan
2.2988818 -0.59086382 0.71151084 nan
2.325645 -0.60443377 0.70902407 nan
2.3174932 -0.60704315 0.70980054 nan
2.3173215 -0.61216593 0.70983118 nan
2.2533185 -0.59682369 0.71582615 nan
2.250159 -0.60086226 0.71613568 nan
2.2529833 -0.6068306 0.715886 nan
2.2548101 -0.61248469 0.71572965 nan
2.3994067 0.26384106 0.69443977 nan
2.3972156 0.25862306 0.6946649 nan
2.3970408 0.25340706 0.69469607 nan
2.3988822 0.24818176 0.69453341 nan
2.3997152 0.24295552 0.69446766 nan
2.3985324 0.23774225 0.69459581 nan
2.3993654 0.23251227 0.69453007 nan
2.4072526 0.227194 0.69378614 nan
2.3838997 0.22227818 0.69604582 nan
2.3877561 0.21702129 0.69568932 nan
2.3855667 0.21185552 0.69591415 nan
2.3853927 0.20665812 0.69594526 nan
2.3872333 0.20141794 0.69578266 nan
2.3961256 0.1960074 0.69494236 nan
2.3929288 0.19086491 0.69526398 nan
2.3857031 0.18584159 0.69597274 nan
2.3724351 0.18101756 0.69726217 nan
2.3702476 0.17590401 0.69748664 nan
2.3861876 0.17021126 0.69596922 nan
2.3829923 0.16511351 0.69629061 nan
2.3878529 0.15973637 0.69583797 nan
2.3886857 0.15449333 0.69577229 nan
2.3905249 0.14920652 0.69560999 nan
2.3903503 0.14399609 0.69564116 nan
2.3821218 0.1391359 0.69644594 nan
2.3809412 0.13398603 0.69657367 nan
2.3837869 0.12864983 0.69631469 nan
2.3805931 0.12359871 0.69663578 nan
2.3794124 0.1184563 0.69676352 nan
2.3933282 0.11252102 0.69544148 nan
2.3931534 0.10730311 0.69547272 nan
2.4236073 -0.4581739 0.69410229 nan
2.3754458 -0.45126656 0.69871539 nan
2.3752711 -0.45648631 0.69874662 nan
2.3521066 -0.45576653 0.70097256 nan
2.3519332 -0.46094337 0.70100343 nan
2.3297729 -0.46035698 0.70313329 nan
2.3296008 -0.46549281 0.70316398 nan
2.3264308 -0.4698315 0.70348078 nan
2.3242602 -0.4744266 0.70370221 nan
2.3210912 -0.47874483 0.70401895 nan
2.3209195 -0.48386577 0.70404953 nan
2.3397298 -0.49417678 0.70226884 nan
2.3175795 -0.49328253 0.70439672 nan
2.3204048 -0.49922851 0.70414138 nan
2.3202331 -0.50434947 0.70417202 nan
2.3250556 -0.51087356 0.70372617 nan
2.3248839 -0.51600373 0.70375687 nan
2.324712 -0.52113402 0.70378757 nan
2.3035693 -0.52025366 0.70581859 nan
2.3033988 -0.52534473 0.70584899 nan
2.3062234 -0.53130567 0.70559371 nan
2.3060527 -0.53640246 0.70562422 nan
2.316864 -0.54472959 0.70460737 nan
2.3186889 -0.55043781 0.70444757 nan
2.321512 -0.55645096 0.70419264 nan
2.314353 -0.55948257 0.70488954 nan
2.3121858 -0.56399381 0.70511043 nan
2.3170047 -0.57061851 0.70466518 nan
2.316833 -0.5757376 0.70469582 nan
2.3166616 -0.58085668 0.7047264 nan
2.3045158 -0.58227253 0.70589846 nan
2.2823939 -0.58053923 0.7080214 nan
2.3011811 -0.59152889 0.70624471 nan
2.3149779 -0.60101867 0.70494395 nan
2.3187966 -0.60740006 0.70459419 nan
2.3216178 -0.61347854 0.70433962 nan
2.2955115 -0.61029434 0.70684177 nan
2.2843697 -0.6118381 0.70791763 nan
2.2842 -0.61689937 0.70794791 nan
2.4057684 0.26380524 0.68863881 nan
2.4025686 0.25857699 0.68896651 nan
2.4023933 0.25335163 0.68899775 nan
2.4072592 0.24810311 0.68853503 nan
2.4070837 0.24286842 0.68856633 nan
2.4069085 0.23763373 0.68859762 nan
2.4077408 0.23238882 0.68853009 nan
2.410589 0.227116 0.68826514 nan
2.3892491 0.22216699 0.69037014 nan
2.3860514 0.21701148 0.69069743 nan
2.3838618 0.21184948 0.69092596 nan
2.3836877 0.20665583 0.69095701 nan
2.380491 0.20152643 0.69128418 nan
2.3853548 0.19622195 0.69082177 nan
2.3851807 0.19102456 0.69085288 nan
2.378962 0.18598926 0.69147587 nan
2.3646858 0.18120736 0.69288808 nan
2.3635054 0.17607801 0.69301754 nan
2.3633325 0.17091978 0.69304842 nan
2.358124 0.16593392 0.69357234 nan
2.3801074 0.1599856 0.69143373 nan
2.3859756 0.15456647 0.69087315 nan
2.3878152 0.1492852 0.69070703 nan
2.3876407 0.14408036 0.69073814 nan
2.3874664 0.13887551 0.69076931 nan
2.3802447 0.1339903 0.69149029 nan
2.3790641 0.12884605 0.69161987 nan
2.3788903 0.12365612 0.69165093 nan
2.3807294 0.11836368 0.69148487 nan
2.3956532 0.1123732 0.69003832 nan
2.3954782 0.10715157 0.69006956 nan
2.4209251 -0.45745817 0.68909693 nan
2.3757577 -0.45130816 0.69350737 nan
2.3755829 -0.45652792 0.69353861 nan
2.352416 -0.45580778 0.69580734 nan
2.3522425 -0.46098462 0.69583827 nan
2.3200846 -0.45777801 0.69898158 nan
2.3109179 -0.46052042 0.69988745 nan
2.3437271 -0.47438958 0.69670904 nan
2.3215687 -0.47366467 0.69887894 nan
2.3183994 -0.47797725 0.69920123 nan
2.3162296 -0.48255 0.69942617 nan
2.3180566 -0.48820797 0.69926238 nan
2.3178852 -0.49332324 0.69929296 nan
2.3207107 -0.49926928 0.69903207 nan
2.3235359 -0.50522661 0.69877118 nan
2.3253622 -0.51091433 0.69860744 nan
2.3251903 -0.51604462 0.6986382 nan
2.3280146 -0.52202797 0.69837743 nan
2.3038735 -0.52029419 0.70073897 nan
2.3037028 -0.52538526 0.70076936 nan
2.3065281 -0.53134632 0.70050848 nan
2.3063571 -0.536443 0.70053899 nan
2.3171697 -0.54477036 0.69950175 nan
2.3429565 -0.55757189 0.69700879 nan
2.3218184 -0.55649185 0.69907767 nan
2.3146586 -0.55952334 0.69978756 nan
2.3124909 -0.56403446 0.70001221 nan
2.3173106 -0.57065928 0.69955766 nan
2.3171389 -0.57577837 0.6995883 nan
2.3169675 -0.58089745 0.69961888 nan
2.3048203 -0.58231318 0.70081329 nan
2.282696 -0.5805794 0.70297712 nan
2.3014853 -0.59156942 0.70116508 nan
2.3043079 -0.5976032 0.70090467 nan
2.3151124 -0.60617661 0.69986886 nan
2.3219242 -0.61351931 0.69922096 nan
2.2738681 -0.60329926 0.70390356 nan
2.2587366 -0.60351515 0.70538729 nan
2.2545786 -0.60723376 0.70580482 nan
2.406081 0.26376355 0.68341964 nan
2.3827131 0.25855374 0.68576658 nan
2.381531 0.2533685 0.68589824 nan
2.4055552 0.2480707 0.68351346 nan
2.4104211 0.24280716 0.68304145 nan
2.4062133 0.23760042 0.68347538 nan
2.4030135 0.23239832 0.68380851 nan
2.4088862 0.22709844 0.68323606 nan
2.4117343 0.22181812 0.68296558 nan
2.3843462 0.21700175 0.68571293 nan
2.3841722 0.2118081 0.68574399 nan
2.3839982 0.20661443 0.68577504 nan
2.380801 0.2014851 0.68610775 nan
2.3816347 0.19627373 0.68603826 nan
2.3814609 0.1910838 0.68606931 nan
2.3802793 0.18592091 0.68620086 nan
2.3629792 0.18122402 0.6879406 nan
2.3638136 0.17603691 0.68787098 nan
2.3636408 0.17087868 0.68790179 nan
2.3584318 0.1658929 0.68843508 nan
2.3763888 0.16008966 0.68665731 nan
2.3792365 0.15479255 0.68638694 nan
2.3790627 0.14960448 0.686418 nan
2.383924 0.14420667 0.68594682 nan
2.3837497 0.1390093 0.68597794 nan
2.3825686 0.13385759 0.68610936 nan
2.3793743 0.1288047 0.68644166 nan
2.3761802 0.12376298 0.6867739 nan
2.3760064 0.11857866 0.68680489 nan
2.3959653 0.1123316 0.68482846 nan
2.3957903 0.10710996 0.68485963 nan
2.4442408 -0.463312 0.6815241 nan
2.3760695 -0.45134971 0.68829942 nan
2.3758948 -0.45656946 0.68833065 nan
2.3737204 -0.46127275 0.68856013 nan
2.32656 -0.45426229 0.69325054 nan
2.3223894 -0.4583427 0.69367766 nan
2.3192191 -0.46267202 0.69400561 nan
2.3200474 -0.46805313 0.69393718 nan
2.319876 -0.47317037 0.6939677 nan
2.315707 -0.47720966 0.69439459 nan
2.3155358 -0.48231944 0.69442517 nan
2.3173628 -0.48797557 0.69425762 nan
2.3181908 -0.49336401 0.69418913 nan
2.3240139 -0.50014091 0.69362557 nan
2.3258407 -0.50582504 0.69345814 nan
2.3306634 -0.51235843 0.6929937 nan
2.3304913 -0.51749802 0.69302446 nan
2.3353138 -0.52405953 0.69256032 nan
2.3091717 -0.52176607 0.6951645 nan
2.309001 -0.52686644 0.69519496 nan
2.3118262 -0.53283679 0.69492859 nan
2.3066618 -0.53648365 0.69545382 nan
2.329458 -0.54833543 0.69320881 nan
2.3292859 -0.55347502 0.69323957 nan
2.3321092 -0.55950689 0.69297361 nan
2.3339336 -0.56525064 0.6928066 nan
2.3127964 -0.56407523 0.69491398 nan
2.3176165 -0.57070005 0.69445014 nan
2.3174448 -0.57581913 0.69448078 nan
2.3142788 -0.58001792 0.69480795 nan
2.3051248 -0.58235371 0.69572806 nan
2.2839959 -0.58093023 0.69783401 nan
2.3017895 -0.59161007 0.69608545 nan
2.3026168 -0.59701538 0.69601715 nan
2.2994528 -0.60116017 0.69634396 nan
2.3152466 -0.61133456 0.69479382 nan
2.2701786 -0.6020602 0.69926929 nan
2.251055 -0.60098171 0.70117593 nan
2.2718368 -0.6127739 0.69913197 nan
2.408411 0.26372373 0.67799532 nan
2.3820148 0.25851336 0.68069279 nan
2.3838577 0.25332156 0.68051869 nan
2.4048595 0.24803367 0.67839682 nan
2.4097259 0.24277195 0.67791551 nan
2.412575 0.23750836 0.67763931 nan
2.410383 0.23228486 0.6778757 nan
2.4081912 0.22706883 0.67811191 nan
2.4100318 0.22180431 0.67793834 nan
2.3856645 0.21694452 0.6804285 nan
2.3844826 0.21176672 0.68056202 nan
2.3843086 0.20657307 0.68059307 nan
2.3821189 0.2014223 0.68082899 nan
2.3799293 0.196279 0.6810649 nan
2.3797557 0.1910928 0.6810959 nan
2.3805895 0.18587957 0.68102443 nan
2.359257 0.18129857 0.68320543 nan
2.3600919 0.17611891 0.68313384 nan
2.3830903 0.17021747 0.68081045 nan
2.379894 0.16512734 0.68114853 nan
2.3766985 0.16004837 0.68148661 nan
2.3765247 0.15486589 0.6815176 nan
2.3763511 0.14968343 0.68154854 nan
2.3842344 0.14416528 0.68076116 nan
2.3840604 0.13896789 0.68079221 nan
2.3798583 0.13395327 0.68123239 nan
2.3796842 0.12876335 0.68126345 nan
2.3764899 0.12372167 0.68160123 nan
2.3763161 0.11853735 0.68163222 nan
2.3872163 0.11276835 0.68053865 nan
2.387042 0.10756351 0.68056977 nan
2.3733816 -0.45062771 0.68339449 nan
2.3732069 -0.45584187 0.68342566 nan
2.3690326 -0.46002284 0.68386084 nan
2.3228669 -0.45326254 0.68853772 nan
2.3226955 -0.45838347 0.68856835 nan
2.3195248 -0.46271279 0.68890184 nan
2.3153548 -0.4667652 0.68933624 nan
2.3101861 -0.47053495 0.68987155 nan
2.318011 -0.47778937 0.68909448 nan
2.3188393 -0.48317418 0.68902421 nan
2.316669 -0.48774311 0.68925655 nan
2.3204951 -0.49395499 0.68888354 nan
2.3263192 -0.50073564 0.68830884 nan
2.3311429 -0.50725985 0.68783504 nan
2.3129866 -0.50734746 0.68968141 nan
2.3128157 -0.51245344 0.68971193 nan
2.3166404 -0.51869702 0.6893391 nan
2.3124735 -0.5226655 0.68977302 nan
2.3123024 -0.52777147 0.68980354 nan
2.3121314 -0.53287745 0.68983406 nan
2.3069663 -0.5365243 0.69036865 nan
2.3037996 -0.54073966 0.69070148 nan
2.3275959 -0.55292487 0.68831319 nan
2.3294208 -0.55865562 0.6881423 nan
2.3342412 -0.56529176 0.68766928 nan
2.3111048 -0.56351352 0.69001722 nan
2.3149271 -0.56983173 0.68964481 nan
2.3147557 -0.57494521 0.68967539 nan
2.3105915 -0.57883155 0.69010884 nan
2.3054295 -0.58239436 0.69064289 nan
2.2842982 -0.58097053 0.69278789 nan
2.3000975 -0.59102595 0.69120729 nan
2.3029213 -0.59705591 0.69093567 nan
2.3027506 -0.60214889 0.69096613 nan
2.2965927 -0.60533416 0.69160044 nan
2.2744706 -0.60337961 0.69384485 nan
2.2743018 -0.60842037 0.69387496 nan
2.2791214 -0.61507893 0.69340205 nan
2.4087238 0.26368201 0.67277241 nan
2.4055223 0.25845018 0.67311698 nan
2.4053471 0.25322109 0.67314827 nan
2.4051719 0.24799201 0.67317951 nan
2.4080222 0.2427433 0.67289764 nan
2.4128883 0.23746657 0.67240715 nan
2.4106963 0.23224311 0.67264718 nan
2.408504 0.2270271 0.67288715 nan
2.4103451 0.22176255 0.67270988 nan
2.4101694 0.21652228 0.67274117 nan
2.3858008 0.21170761 0.6752758 nan
2.3846188 0.20653167 0.67541116 nan
2.3824289 0.20138095 0.67565078 nan
2.381247 0.19621436 0.67578602 nan
2.3800654 0.19105148 0.67592138 nan
2.3788841 0.18589234 0.67605662 nan
2.3535185 0.18143108 0.67869353 nan
2.3533463 0.17629337 0.67872429 nan
2.3763478 0.17040466 0.67635804 nan
2.3771818 0.16518953 0.67628479 nan
2.3830526 0.15978879 0.67569059 nan
2.3768344 0.15482461 0.67634678 nan
2.3766608 0.14964214 0.67637777 nan
2.3845451 0.14412385 0.67557549 nan
2.3843708 0.13892648 0.67560655 nan
2.3801682 0.13391192 0.67605418 nan
2.3568325 0.12981613 0.67848009 nan
2.3556528 0.12471855 0.67861497 nan
2.353467 0.11967596 0.67885393 nan
2.3593357 0.11421552 0.67826009 nan
2.3716929 -0.45016012 0.67839789 nan
2.3685181 -0.45460126 0.67873764 nan
2.3613439 -0.45799795 0.67948878 nan
2.3181734 -0.45200256 0.68394256 nan
2.3130028 -0.45580408 0.68448734 nan
2.3108323 -0.46037856 0.6847235 nan
2.3186593 -0.46760318 0.68393141 nan
2.2944961 -0.4662936 0.68642938 nan
2.3183165 -0.47783014 0.68399256 nan
2.3211441 -0.48375759 0.68371481 nan
2.3199732 -0.4886035 0.68384814 nan
2.3247983 -0.49509612 0.68336493 nan
2.3286242 -0.50133038 0.68298459 nan
2.3094656 -0.50116682 0.6849674 nan
2.314291 -0.50766885 0.68448418 nan
2.3141198 -0.51277673 0.6845147 nan
2.3149478 -0.51816893 0.68444258 nan
2.3127785 -0.52270615 0.68467849 nan
2.3126075 -0.52781224 0.68470907 nan
2.3084407 -0.53175819 0.68515027 nan
2.3072708 -0.53656483 0.68528342 nan
2.3041039 -0.54078031 0.68562186 nan
2.3279028 -0.55296588 0.68318892 nan
2.3297279 -0.55869651 0.68301433 nan
2.3085849 -0.55755019 0.6852001 nan
2.31141 -0.56355417 0.68492275 nan
2.3162313 -0.57017553 0.68444026 nan
2.3390234 -0.58230412 0.68211138 nan
2.3338587 -0.58592832 0.6826551 nan
2.3286946 -0.58953393 0.68319869 nan
2.308558 -0.58846331 0.6852805 nan
2.2764456 -0.58356929 0.68859231 nan
2.2772746 -0.5889262 0.68852001 nan
2.2771056 -0.59397066 0.68855017 nan
2.2769368 -0.59901512 0.68858033 nan
2.2797616 -0.60501909 0.68830299 nan
2.2795923 -0.61006904 0.68833315 nan
2.2844119 -0.61673701 0.68785095 nan
2.4070187 0.26363853 0.66776216 nan
2.3775907 0.25843555 0.67087501 nan
2.3794348 0.25325298 0.67069352 nan
2.4075019 0.24794096 0.6677497 nan
2.4133773 0.24266879 0.66714358 nan
2.4162271 0.23739952 0.66685629 nan
2.392858 0.23238656 0.66933048 nan
2.390667 0.22720414 0.66957402 nan
2.3904924 0.22200117 0.66960514 nan
2.3903182 0.21679819 0.66963625 nan
2.3901439 0.21159521 0.66966736 nan
2.3899696 0.20639223 0.66969848 nan
2.3837469 0.20131811 0.67036641 nan
2.381557 0.19617303 0.67060971 nan
2.3813832 0.19098496 0.67064071 nan
2.3812094 0.1857969 0.6706717 nan
2.3548331 0.18136121 0.67346126 nan
2.3486152 0.17640644 0.67412853 nan
2.3716192 0.17052671 0.67171943 nan
2.3774912 0.16514826 0.67111397 nan
2.3853781 0.15967461 0.67029661 nan
2.3801663 0.15466854 0.67085785 nan
2.3769703 0.14960085 0.67120695 nan
2.3798187 0.14429241 0.6709199 nan
2.3796449 0.13910435 0.67095089 nan
2.3804784 0.13387057 0.67087597 nan
2.3571401 0.12977511 0.67334467 nan
2.3559604 0.12467754 0.6734814 nan
2.3537741 0.119635 0.67372411 nan
2.3596435 0.11417447 0.67311913 nan
2.3690035 -0.44943789 0.67351335 nan
2.3668287 -0.45412979 0.67375398 nan
2.3586538 -0.45726433 0.67462289 nan
2.3354795 -0.45646635 0.67706239 nan
2.3083081 -0.4545345 0.67992014 nan
2.3071373 -0.45936343 0.6800552 nan
2.2949686 -0.46126524 0.68134183 nan
2.307796 -0.46981332 0.68001145 nan
2.3216214 -0.47867933 0.67857665 nan
2.32145 -0.48379835 0.67860729 nan
2.3212783 -0.48891744 0.67863786 nan
2.3011162 -0.48853448 0.68076098 nan
2.3039443 -0.4944472 0.68047756 nan
2.3137679 -0.50232279 0.67946196 nan
2.3175941 -0.5085516 0.67907405 nan
2.3174229 -0.51366508 0.67910463 nan
2.3132548 -0.51764083 0.67955351 nan
2.310086 -0.52188802 0.67989773 nan
2.3079169 -0.52641213 0.68013728 nan
2.3047493 -0.53063869 0.68048137 nan
2.3025806 -0.535146 0.68072087 nan
2.3024101 -0.54023349 0.68075126 nan
2.3042374 -0.54591191 0.68057269 nan
2.3040669 -0.55100298 0.68060309 nan
2.3068924 -0.55699217 0.68032014 nan
2.3117149 -0.56359482 0.67982829 nan
2.3115439 -0.56870091 0.6798588 nan
2.3113728 -0.57380688 0.67988932 nan
2.3082061 -0.57799256 0.68023318 nan
2.3040419 -0.58185828 0.68068135 nan
2.2839043 -0.58074057 0.68280005 nan
2.276747 -0.58360946 0.68356109 nan
2.2765779 -0.58865201 0.68359125 nan
2.2813997 -0.59527528 0.68309951 nan
2.2762401 -0.59873724 0.68365157 nan
2.2760711 -0.60377979 0.68368173 nan
2.2589366 -0.60335314 0.68548578 nan
2.2717414 -0.61257076 0.6841594 nan
2.2715726 -0.61760581 0.6841895 nan
2.4093492 0.26359862 0.66232663 nan
2.3819356 0.25839037 0.66527736 nan
2.384788 0.25319752 0.66498405 nan
2.3866317 0.24799816 0.6647988 nan
2.390492 0.24277821 0.66439748 nan
2.3953607 0.23753491 0.66388822 nan
2.3972032 0.23230384 0.66370326 nan
2.3940034 0.2271262 0.66405863 nan
2.3908033 0.22195971 0.66441387 nan
2.3906291 0.21675673 0.66444498 nan
2.3904548 0.21155375 0.6644761 nan
2.3902805 0.20635077 0.66450721 nan
2.3840573 0.20127675 0.66518629 nan
2.3818669 0.19613169 0.66543329 nan
2.3816931 0.19094363 0.66546434 nan
2.3815193 0.18575557 0.6654954 nan
2.3551402 0.18132026 0.66833329 nan
2.3489215 0.17636558 0.66901171 nan
2.3719282 0.17048551 0.66655982 nan
2.3767934 0.16514149 0.66605115 nan
2.3796427 0.15985167 0.66575837 nan
2.3774538 0.15474203 0.66600519 nan
2.37728 0.14955956 0.66603613 nan
2.3771064 0.14437708 0.66606712 nan
2.3769329 0.13919462 0.66609812 nan
2.3807886 0.13382921 0.66569775 nan
2.3574476 0.1297341 0.66820925 nan
2.357275 0.12458707 0.66824001 nan
2.3540814 0.11959404 0.66859424 nan
2.3663135 -0.44871554 0.66864008 nan
2.342133 -0.44775954 0.67122954 nan
2.3329585 -0.45058897 0.67221963 nan
2.3167839 -0.45156363 0.67395556 nan
2.2766097 -0.44618902 0.6782487 nan
2.2814412 -0.45254192 0.677746 nan
2.2912717 -0.46024248 0.67671072 nan
2.3140998 -0.47145984 0.67429078 nan
2.3199277 -0.47818103 0.67368221 nan
2.3227553 -0.48411056 0.67339325 nan
2.3225839 -0.4892315 0.67342389 nan
2.3044188 -0.48940036 0.67537123 nan
2.3042483 -0.49448773 0.67540169 nan
2.3140731 -0.50236356 0.67436743 nan
2.3178997 -0.50859237 0.67397213 nan
2.3177283 -0.51370585 0.67400271 nan
2.3135598 -0.5176816 0.67445898 nan
2.3103907 -0.52192855 0.6748088 nan
2.3082213 -0.52645266 0.67505205 nan
2.3050532 -0.53067923 0.67540175 nan
2.2998874 -0.53431082 0.67596412 nan
2.3027141 -0.54027402 0.67567539 nan
2.3075383 -0.54683936 0.675174 nan
2.3043709 -0.55104363 0.67552352 nan
2.3071969 -0.55703282 0.67523491 nan
2.3100226 -0.56303322 0.67494643 nan
2.3128476 -0.56904459 0.67465794 nan
2.3066845 -0.57232285 0.67532635 nan
2.3065138 -0.57741952 0.67535681 nan
2.3043461 -0.58189881 0.67559987 nan
2.2812111 -0.57984924 0.67807466 nan
2.2770483 -0.58364964 0.67852986 nan
2.2768793 -0.58869219 0.67856002 nan
2.2817016 -0.59531546 0.67805898 nan
2.2835288 -0.60100341 0.67787671 nan
2.2643945 -0.59998155 0.67992514 nan
2.2791975 -0.60982776 0.67836201 nan
2.2640581 -0.61002195 0.67998517 nan
2.388473 0.26353863 0.6594137 nan
2.3822453 0.25834906 0.66010469 nan
2.3850982 0.25315616 0.65980577 nan
2.3869419 0.24795678 0.65961683 nan
2.3918116 0.24273017 0.65909815 nan
2.3946636 0.23750183 0.65879947 nan
2.3995318 0.23224166 0.65828097 nan
2.392297 0.22710904 0.65908158 nan
2.3911142 0.22191826 0.6592226 nan
2.39094 0.21671528 0.65925372 nan
2.3907657 0.2115123 0.65928483 nan
2.3895829 0.20632897 0.65942585 nan
2.3843675 0.20123538 0.66000623 nan
2.3821771 0.19609034 0.66025698 nan
2.3820033 0.19090229 0.66028798 nan
2.3818293 0.18571423 0.66031897 nan
2.3534317 0.18133724 0.66342491 nan
2.3754339 0.1755231 0.66103983 nan
2.3782842 0.17024814 0.66074145 nan
2.3781106 0.16506568 0.66077244 nan
2.3779371 0.1598832 0.66080344 nan
2.3777633 0.15470073 0.66083443 nan
2.3775897 0.14951827 0.66086537 nan
2.3774161 0.14433581 0.66089636 nan
2.3772423 0.13915333 0.66092736 nan
2.3831134 0.13369636 0.66030002 nan
2.362792 0.12945503 0.66252524 nan
2.3636262 0.12424919 0.66244638 nan
2.3614392 0.11919364 0.6626966 nan
2.3436141 -0.44290081 0.66594732 nan
2.3134298 -0.4403626 0.66923195 nan
2.3112583 -0.44494638 0.66947931 nan
2.3110876 -0.45004311 0.66950977 nan
2.2869124 -0.44884989 0.67214251 nan
2.2887435 -0.45442978 0.67195588 nan
2.3125753 -0.46586469 0.66938442 nan
2.3164046 -0.4720358 0.66898137 nan
2.3232329 -0.4790304 0.66825318 nan
2.3230615 -0.48415133 0.66828382 nan
2.327889 -0.49063858 0.66777265 nan
2.3307164 -0.49659428 0.66747832 nan
2.3355427 -0.50311506 0.66696733 nan
2.3163774 -0.50296187 0.6690563 nan
2.3212039 -0.50947523 0.66854525 nan
2.3210325 -0.51459432 0.66857588 nan
2.3138649 -0.51772225 0.66936451 nan
2.3106956 -0.5219692 0.66971987 nan
2.308526 -0.52649331 0.66996688 nan
2.3053575 -0.53071976 0.67032218 nan
2.3001912 -0.53435135 0.67089385 nan
2.3030181 -0.54031456 0.67059946 nan
2.307843 -0.54688001 0.67008877 nan
2.3286514 -0.55822444 0.6678468 nan
2.330477 -0.563959 0.66766107 nan
2.3103273 -0.56307387 0.66985559 nan
2.3131528 -0.56908536 0.66956162 nan
2.306989 -0.5723635 0.67024112 nan
2.3068182 -0.57746017 0.67027164 nan
2.3046505 -0.58193946 0.6705184 nan
2.2815127 -0.57988942 0.67303598 nan
2.2773495 -0.58368981 0.67349863 nan
2.2771807 -0.58873236 0.67352879 nan
2.2840002 -0.59598804 0.67280227 nan
2.2838309 -0.6010437 0.67283249 nan
2.2636964 -0.59970164 0.67502427 nan
2.2794991 -0.60986805 0.67332518 nan
2.2603657 -0.60876751 0.67540848 nan
2.2701783 -0.61703503 0.67435801 nan
2.3807106 0.26349038 0.65512478 nan
2.3825552 0.25830775 0.65493208 nan
2.3854084 0.25311482 0.65462756 nan
2.3882611 0.24791066 0.6543231 nan
2.3941402 0.24267551 0.6536833 nan
2.392957 0.23747727 0.65382624 nan
2.3887477 0.23231377 0.6543045 nan
2.3865561 0.22714078 0.65455914 nan
2.3914251 0.2218768 0.6540314 nan
2.3912508 0.21667382 0.65406251 nan
2.3900678 0.21148865 0.65420532 nan
2.3888853 0.20630719 0.65434813 nan
2.3866944 0.20115098 0.65460265 nan
2.3834953 0.19602562 0.65496886 nan
2.3823133 0.19086096 0.65511161 nan
2.3821394 0.18567289 0.65514266 nan
2.3557546 0.18123835 0.6580773 nan
2.3555822 0.17609879 0.658108 nan
2.3785939 0.17020684 0.65557063 nan
2.381444 0.16492066 0.6552667 nan
2.3782468 0.15984191 0.65563262 nan
2.378073 0.15465945 0.65566361 nan
2.3809226 0.14935645 0.65535975 nan
2.3827641 0.14408432 0.65516758 nan
2.3916588 0.13849743 0.65419436 nan
2.3995445 0.13292272 0.65333283 nan
2.4054146 0.12741345 0.65269464 nan
2.4022167 0.12232725 0.65306062 nan
2.3980122 0.11730361 0.65353805 nan
2.3169074 -0.43606684 0.66378152 nan
2.3127344 -0.44014683 0.66425335 nan
2.3035595 -0.44292012 0.66527659 nan
2.3173943 -0.45164505 0.66376281 nan
2.3192239 -0.45727709 0.66357279 nan
2.3190527 -0.46238866 0.66360331 nan
2.3208816 -0.46803197 0.66341341 nan
2.3207102 -0.4731473 0.66344392 nan
2.326539 -0.47987995 0.66281313 nan
2.3283675 -0.48554924 0.66262329 nan
2.3311954 -0.49149933 0.6623233 nan
2.3310232 -0.49663523 0.66235405 nan
2.3328505 -0.50232506 0.66216433 nan
2.3116839 -0.50160825 0.66450894 nan
2.3165116 -0.50811231 0.66398859 nan
2.3163404 -0.5132221 0.66401917 nan
2.3141701 -0.5177629 0.66426998 nan
2.3110003 -0.52200985 0.66463095 nan
2.3088305 -0.52653396 0.66488171 nan
2.3056617 -0.53076041 0.66524255 nan
2.3034925 -0.53526759 0.66549319 nan
2.3033221 -0.54035509 0.66552359 nan
2.30515 -0.54603362 0.66533387 nan
2.3289583 -0.55826533 0.66272253 nan
2.3307841 -0.56399989 0.6625331 nan
2.309633 -0.56281316 0.66487491 nan
2.3094623 -0.56791365 0.66490543 nan
2.3072937 -0.57240403 0.66515595 nan
2.3071227 -0.5775007 0.66518641 nan
2.3019583 -0.58105397 0.66576695 nan
2.2818146 -0.57992971 0.6679973 nan
2.3026161 -0.59154093 0.66571778 nan
2.3024457 -0.59663022 0.66574824 nan
2.2843022 -0.59602833 0.66775799 nan
2.284133 -0.60108399 0.66778821 nan
2.2839634 -0.60613966 0.66781843 nan
2.2977703 -0.61570013 0.66630965 nan
2.2556739 -0.6071893 0.67095661 nan
2.2684827 -0.6164242 0.66955775 nan
2.3810201 0.2634491 0.64995587 nan
2.382865 0.25826645 0.64975941 nan
2.3857183 0.25307345 0.64944929 nan
2.3905897 0.24785978 0.64891189 nan
2.3984873 0.24260755 0.64803362 nan
2.3983126 0.23739338 0.64806479 nan
2.3961203 0.23219992 0.64832324 nan
2.3939281 0.22701392 0.64858174 nan
2.3967795 0.22176497 0.64827198 nan
2.393579 0.21660049 0.64864397 nan
2.3913875 0.21142939 0.64890236 nan
2.3912132 0.20622641 0.64893347 nan
2.3880134 0.20108804 0.64930528 nan
2.3858223 0.19593745 0.64956349 nan
2.38464 0.19076908 0.64970815 nan
2.3824494 0.18563156 0.64996624 nan
2.3560617 0.1811974 0.65294933 nan
2.3558893 0.17605785 0.65298003 nan
2.3789036 0.17016554 0.65039992 nan
2.3787301 0.16498308 0.65043086 nan
2.3815801 0.15969124 0.65012133 nan
2.3844302 0.15438822 0.64981192 nan
2.3933268 0.14883289 0.64882171 nan
2.4012144 0.14328605 0.64794517 nan
2.4111164 0.13762152 0.64684188 nan
2.4139638 0.13224018 0.64653295 nan
2.4057274 0.12737174 0.64747179 nan
2.3793559 0.12342434 0.6504519 nan
2.3761597 0.11839226 0.65082312 nan
2.3628898 0.11390379 0.65232825 nan
2.3172123 -0.43610755 0.65868706 nan
2.3150401 -0.44070044 0.65894192 nan
2.3148692 -0.44580278 0.65897244 nan
2.3166993 -0.45142552 0.65877867 nan
2.3195293 -0.4573178 0.65847266 nan
2.3433664 -0.46876469 0.65581203 nan
2.3461945 -0.4747186 0.65550649 nan
2.3240166 -0.47399107 0.65800381 nan
2.3448486 -0.48477295 0.65568036 nan
2.3476758 -0.49074724 0.65537488 nan
2.3315022 -0.49154022 0.65719903 nan
2.3313301 -0.49667612 0.65722978 nan
2.3331575 -0.50236595 0.65703636 nan
2.309989 -0.50109112 0.65964413 nan
2.3148172 -0.50759161 0.65911448 nan
2.3116469 -0.51184976 0.65948105 nan
2.3094766 -0.51638114 0.65973556 nan
2.3093059 -0.52147782 0.65976596 nan
2.309135 -0.52657449 0.65979648 nan
2.3089643 -0.53167117 0.65982693 nan
2.3087935 -0.53676784 0.65985739 nan
2.3056247 -0.54098308 0.66022378 nan
2.3054543 -0.54607427 0.66025424 nan
2.3292651 -0.55830622 0.65759826 nan
2.3310912 -0.5640409 0.65740514 nan
2.3309188 -0.56918049 0.65743583 nan
2.3077688 -0.567348 0.66004026 nan
2.3075981 -0.57244468 0.66007078 nan
2.3044307 -0.57662082 0.66043687 nan
2.3002646 -0.580477 0.66091478 nan
2.2801185 -0.5793488 0.66318232 nan
2.3029203 -0.59158146 0.66064 nan
2.3027499 -0.59667075 0.66067046 nan
2.3075721 -0.60334098 0.66014183 nan
2.2914248 -0.60335076 0.66196126 nan
2.291255 -0.60841942 0.66199154 nan
2.2850945 -0.61155736 0.66269261 nan
2.2859232 -0.61693847 0.66261107 nan
2.3793108 0.26340619 0.6450181 nan
2.3811562 0.25822723 0.64481789 nan
2.3830011 0.25304082 0.6446178 nan
2.3909004 0.24781835 0.64372438 nan
2.3987989 0.242566 0.64283127 nan
2.3986242 0.23735183 0.64286244 nan
2.3964314 0.23215841 0.64312458 nan
2.3942392 0.22697243 0.64338672 nan
2.3970912 0.22172344 0.64307141 nan
2.3938901 0.21655901 0.64344895 nan
2.3916984 0.21138793 0.64371109 nan
2.3915238 0.20618495 0.6437422 nan
2.388324 0.20104663 0.64411962 nan
2.3861327 0.19589609 0.64438158 nan
2.3849502 0.19072771 0.64452803 nan
2.3827593 0.18559022 0.64478987 nan
2.3563688 0.18115646 0.64782131 nan
2.3561964 0.1760169 0.647852 nan
2.3792133 0.17012426 0.6452291 nan
2.3790395 0.16494179 0.64526004 nan
2.378866 0.15975933 0.64529103 nan
2.3847406 0.15434684 0.64463001 nan
2.390614 0.14891198 0.64396906 nan
2.3954794 0.1434968 0.64342356 nan
2.4043751 0.13788727 0.64241689 nan
2.41327 0.13224414 0.64141047 nan
2.4080553 0.12723471 0.64201832 nan
2.3796659 0.12338302 0.64527744 nan
2.3724389 0.11855654 0.6461153 nan
2.3601751 0.11402246 0.64752924 nan
2.337533 -0.44124135 0.65131152 nan
2.3343585 -0.44561508 0.6516844 -3.393067e+38
2.3341863 -0.45075276 0.6517151 nan
2.3150032 -0.45094565 0.65391219 nan
2.3168333 -0.45657215 0.65371466 nan
2.3166621 -0.46167824 0.65374517 nan
2.346503 -0.47475973 0.65035617 nan
2.3243225 -0.4740319 0.6528945 nan
2.3521588 -0.48670116 0.64973414 nan
2.354986 -0.49268851 0.64942318 nan
2.3338091 -0.49212775 0.65184689 nan
2.3316369 -0.49671707 0.65210551 nan
2.3314648 -0.50185287 0.65213621 nan
2.3102934 -0.50113177 0.6545589 nan
2.3121226 -0.50678992 0.65436167 nan
2.3119516 -0.51189041 0.65439212 nan
2.3097811 -0.51642179 0.65465033 nan
2.3096104 -0.52151847 0.65468085 nan
2.3094397 -0.52661514 0.65471131 nan
2.3092687 -0.53171182 0.65474176 nan
2.309098 -0.53680849 0.65477228 nan
2.3059289 -0.54102361 0.65514416 nan
2.3057585 -0.5461148 0.65517461 nan
2.3315704 -0.5589422 0.65224636 nan
2.3343961 -0.56498003 0.65193576 nan
2.3102427 -0.56289446 0.65469712 nan
2.3080733 -0.56738865 0.65495509 nan
2.3049054 -0.57157016 0.65532678 nan
2.3047349 -0.57666135 0.65535724 nan
2.3005683 -0.58051741 0.65584266 nan
2.2804201 -0.57938898 0.65814734 nan
2.3012266 -0.5909971 0.65578973 nan
2.3010564 -0.59608269 0.65582013 nan
2.3078768 -0.60338151 0.65505469 nan
2.2917275 -0.60339105 0.65690398 nan
2.2915578 -0.60845983 0.65693426 nan
2.2873938 -0.61224127 0.6574192 nan
2.2672551 -0.61082935 0.65972221 nan
2.2441235 -0.60836625 0.66236567 nan
2.2419598 -0.61269248 0.66262275 nan
2.3796201 0.26336494 0.63985288 nan
2.3794467 0.25818807 0.63988376 nan
2.3792732 0.2530112 0.63991475 nan
2.383137 0.24781518 0.63947612 nan
2.3940642 0.2425577 0.63821578 nan
2.3938899 0.23735286 0.63824689 nan
2.3916974 0.23216879 0.63851273 nan
2.3915231 0.22696768 0.63854384 nan
2.3943758 0.22172423 0.63822287 nan
2.3942013 0.21651752 0.63825399 nan
2.3920093 0.21134648 0.63851982 nan
2.3918347 0.2061435 0.63855094 nan
2.3886344 0.20100522 0.6389339 nan
2.3864431 0.19585469 0.63919961 nan
2.3832431 0.19073695 0.63958251 nan
2.3850863 0.18549454 0.63937902 nan
2.3566759 0.18111551 0.64269334 nan
2.3565035 0.17597595 0.6427241 nan
2.379523 0.17008296 0.64005834 nan
2.3793492 0.1649005 0.64008927 nan
2.3822002 0.15960857 0.6397686 nan
2.3870671 0.15422875 0.63921356 nan
2.401006 0.14846835 0.637604 nan
2.4028471 0.14316069 0.63740087 nan
2.414767 0.13740613 0.63602602 nan
2.4226544 0.13179004 0.63512009 nan
2.4234858 0.12647785 0.6350345 nan
2.4152474 0.12160778 0.63600302 nan
2.4029789 0.11697318 0.63743997 nan
2.390712 0.11238332 0.63887662 nan
2.3348377 -0.44051829 0.64652753 nan
2.3346653 -0.44565597 0.64655823 -3.313416e+38
2.3344932 -0.45079365 0.64658892 nan
2.3123057 -0.45020553 0.64916897 nan
2.312135 -0.45530215 0.64919949 nan
2.3169672 -0.46171895 0.64865071 nan
2.3438098 -0.47400323 0.64555335 nan
2.3216271 -0.47326955 0.64813256 nan
2.3264577 -0.47973284 0.64758402 nan
2.3282869 -0.48540047 0.64738303 nan
2.3151116 -0.48697558 0.64891917 nan
2.3079391 -0.4901534 0.64976019 nan
2.3077683 -0.49524447 0.64979059 nan
2.3075979 -0.50033557 0.64982104 nan
2.3104272 -0.50626898 0.64950418 nan
2.3332553 -0.51786661 0.64687258 nan
2.3100858 -0.51646233 0.64956516 nan
2.3099148 -0.52155912 0.64959562 nan
2.3097441 -0.52665579 0.64962614 nan
2.3075743 -0.53117216 0.64988798 nan
2.3094025 -0.53684914 0.64968705 nan
2.3092318 -0.54194582 0.64971751 nan
2.31106 -0.54763389 0.6495167 nan
2.336875 -0.56047106 0.64654011 nan
2.3347037 -0.56502104 0.64680219 nan
2.3105474 -0.56293499 0.64960819 nan
2.3053803 -0.56651974 0.65021676 nan
2.3052096 -0.57161081 0.65024722 nan
2.3050392 -0.57670188 0.65027761 nan
2.3008721 -0.58055794 0.65077043 nan
2.2807214 -0.57942915 0.65311235 nan
2.3015306 -0.59103763 0.65071571 nan
2.3013601 -0.5961231 0.65074611 nan
2.3031874 -0.60184109 0.65054536 nan
2.2910318 -0.60311341 0.65196222 nan
2.2938578 -0.60914004 0.65164596 nan
2.2886951 -0.61260343 0.65225387 nan
2.2675555 -0.61086941 0.65470964 nan
2.242424 -0.60775483 0.65762687 nan
2.2442541 -0.61338699 0.65742564 nan
2.3769011 0.26332128 0.63504559 nan
2.3767278 0.25815001 0.63507652 nan
2.3816016 0.25296408 0.63451099 nan
2.3834467 0.24777387 0.63430351 nan
2.3974032 0.24249625 0.63266486 nan
2.4022748 0.23724318 0.63209981 nan
2.3950357 0.23209617 0.63296562 nan
2.3948612 0.22688946 0.63299674 nan
2.3987231 0.22162625 0.63255107 nan
2.3935032 0.21649201 0.63317823 nan
2.3933289 0.21128717 0.63320935 nan
2.3911366 0.20612177 0.63347888 nan
2.3869274 0.20100698 0.63398665 nan
2.3857446 0.19583677 0.6341368 nan
2.3835533 0.19069561 0.63440609 nan
2.3853965 0.18545318 0.6341989 nan
2.3600087 0.18098745 0.63720798 nan
2.3568106 0.17593499 0.63759607 nan
2.3798325 0.17004168 0.63488758 nan
2.382684 0.1647553 0.63456118 nan
2.3895683 0.15931174 0.63375872 nan
2.396452 0.15384205 0.63295633 nan
2.4053507 0.14826581 0.63191605 nan
2.4051754 0.14303486 0.63194728 nan
2.4201212 0.13714449 0.63019311 nan
2.4280088 0.13151896 0.62927234 nan
2.429848 0.12614974 0.62906587 nan
2.4195926 0.12136772 0.63028741 nan
2.4113536 0.11652015 0.63127077 nan
2.4061394 0.11154257 0.63189691 nan
2.3132932 -0.42985937 0.64396191 nan
2.3131225 -0.43495604 0.64399242 nan
2.3129518 -0.44005272 0.64402288 -3.3400539e+38
2.3127811 -0.44514939 0.64405334 nan
2.3126101 -0.45024613 0.64408386 nan
2.3124394 -0.45534274 0.64411432 nan
2.3172722 -0.4617596 0.64355624 nan
2.3221042 -0.46819499 0.64299816 nan
2.2999206 -0.46741989 0.64561802 nan
2.3217614 -0.47842559 0.64305937 nan
2.3245914 -0.48435536 0.64273691 nan
2.3154166 -0.48701623 0.64382648 nan
2.3082433 -0.49019393 0.64468056 nan
2.3080726 -0.495285 0.64471102 nan
2.3079021 -0.50037611 0.64474142 nan
2.3077314 -0.50546718 0.64477187 nan
2.3335624 -0.5179075 0.64174461 nan
2.33339 -0.52304709 0.64177531 nan
2.3332179 -0.52818668 0.64180607 nan
2.3330457 -0.53332627 0.64183676 nan
2.3318737 -0.5381757 0.64198506 nan
2.3367004 -0.54477334 0.64142805 nan
2.3115358 -0.54257405 0.64439726 nan
2.314364 -0.54856169 0.64407521 nan
2.338182 -0.56080961 0.6412853 nan
2.335011 -0.56506205 0.64166862 nan
2.3088531 -0.56237304 0.64475429 nan
2.3056843 -0.56656027 0.64513713 nan
2.3075125 -0.57226145 0.64493263 nan
2.308341 -0.57766318 0.64484566 nan
2.3051727 -0.58183348 0.64522845 nan
2.2850196 -0.58071184 0.64760768 nan
2.3048315 -0.59201562 0.64528936 nan
2.3046608 -0.59710681 0.64531982 nan
2.3044903 -0.60219777 0.64535022 nan
2.3143086 -0.61046994 0.6442067 nan
2.3141375 -0.61557972 0.64423728 nan
2.2658579 -0.61026192 0.64993167 nan
2.2606966 -0.61365449 0.65054846 nan
2.3802388 0.26328242 0.62952244 nan
2.3770368 0.25810879 0.62991691 nan
2.3839302 0.2529169 0.62909985 nan
2.3857753 0.24772295 0.62888849 nan
2.3977146 0.24245474 0.62746614 nan
2.4056149 0.23717597 0.62652844 nan
2.3973656 0.23203386 0.62752849 nan
2.3971908 0.22682342 0.6275596 nan
2.3980255 0.22159885 0.62746978 nan
2.3978508 0.21638654 0.62750095 nan
2.397676 0.21117425 0.62753212 nan
2.3924565 0.20606059 0.6281684 nan
2.3862286 0.20098719 0.62892574 nan
2.385046 0.19581887 0.62907773 nan
2.384872 0.19062895 0.62910873 nan
2.3836894 0.1854662 0.62926078 nan
2.360316 0.18094644 0.63207442 nan
2.3611524 0.17577034 0.63198423 nan
2.387202 0.16977088 0.62887001 nan
2.3930788 0.16436745 0.62817532 nan
2.3999634 0.15890513 0.62735993 nan
2.3806298 0.15441459 0.6296888 nan
2.3824725 0.14914978 0.62947786 nan
2.4075046 0.14290896 0.6264863 nan
2.4214435 0.13705862 0.62482512 nan
2.4263077 0.13156863 0.6242522 nan
2.4261312 0.12629852 0.62428367 nan
2.4188988 0.12137538 0.62516123 nan
2.4086432 0.11663267 0.62640113 nan
2.4014127 0.11176735 0.62727827 nan
2.3135979 -0.42989996 0.63887674 nan
2.313427 -0.43499663 0.63890719 nan
2.3132563 -0.44009331 0.63893771 -3.3533967e+38
2.3130856 -0.44518998 0.63896817 nan
2.3129148 -0.45028672 0.63899863 nan
2.3177485 -0.45669422 0.63843113 nan
2.3205798 -0.46259227 0.63810295 nan
2.3224099 -0.46823576 0.63789439 nan
2.3002236 -0.46746036 0.6405552 nan
2.3140621 -0.47630939 0.6389119 nan
2.3138912 -0.48140976 0.63894236 nan
2.3117194 -0.48596343 0.63921195 nan
2.3065464 -0.48968408 0.63983995 nan
2.3293846 -0.50114441 0.63712192 nan
2.3292127 -0.5062747 0.63715255 nan
2.3320413 -0.51224732 0.63682485 nan
2.3318691 -0.51738322 0.63685554 nan
2.3316972 -0.52251911 0.63688624 nan
2.3335249 -0.52822757 0.63667804 nan
2.3333528 -0.53336716 0.6367088 nan
2.3321807 -0.53821671 0.63685894 nan
2.337008 -0.54481435 0.63629258 nan
2.3148401 -0.54349637 0.63895017 nan
2.3146689 -0.54860234 0.63898069 nan
2.3404894 -0.56144583 0.63590741 nan
2.3393168 -0.56630099 0.63605756 nan
2.3131561 -0.56361902 0.63919163 nan
2.3099866 -0.56781363 0.63958013 nan
2.3108151 -0.57321715 0.63949132 nan
2.3106441 -0.57831764 0.63952178 nan
2.3054769 -0.58187401 0.64014882 nan
2.2853215 -0.58075213 0.64256531 nan
2.3061349 -0.59236884 0.64009047 nan
2.3059642 -0.5974617 0.64012092 nan
2.3047945 -0.60223842 0.64027059 nan
2.3146138 -0.61051059 0.63910848 nan
2.3144426 -0.61562037 0.63913906 nan
2.2982898 -0.61558068 0.64107728 nan
2.2551713 -0.60674119 0.64623421 nan
2.2510085 -0.6104387 0.64674091 nan
2.2498426 -0.61510348 0.64688998 nan
2.3896363 0.26324809 0.62325013 nan
2.3813844 0.2580632 0.62426519 nan
2.381211 0.25288448 0.62429619 nan
2.3840663 0.24769126 0.62395817 nan
2.4030735 0.24237977 0.62165254 nan
2.4049177 0.23714289 0.62143791 nan
2.3936391 0.23203403 0.62282163 nan
2.396493 0.22679418 0.62248391 nan
2.4003553 0.22152901 0.62202334 nan
2.4001806 0.21631297 0.62205446 nan
2.4000058 0.21109694 0.62208569 nan
2.3907492 0.20605864 0.62322295 nan
2.388557 0.20090261 0.62349975 nan
2.3863649 0.19575404 0.62377661 nan
2.3892179 0.19048622 0.62343907 nan
2.3880348 0.18531606 0.62359297 nan
2.3646588 0.18078916 0.62644947 nan
2.368521 0.17551279 0.62598896 nan
2.3693566 0.1703199 0.62589705 nan
2.3772523 0.16488063 0.6249454 nan
2.3841388 0.15944803 0.62411672 nan
2.3859818 0.15418132 0.6239022 nan
2.3827825 0.14910844 0.62430155 nan
2.3846254 0.14383613 0.62408704 nan
2.4217579 0.1370167 0.61957616 nan
2.4235981 0.1316642 0.61936212 nan
2.4214053 0.12649512 0.6196391 nan
2.4111481 0.12173018 0.62089765 nan
2.4019001 0.11695108 0.62203348 nan
2.3896294 0.11236548 0.62353712 nan
2.3159051 -0.4304463 0.6335485 nan
2.3167355 -0.43580148 0.63345754 nan
2.3165646 -0.44090369 0.63348806 -3.3398979e+38
2.3384178 -0.4516919 0.63084614 nan
2.3182247 -0.45162889 0.63330615 nan
2.3230584 -0.45804581 0.63272941 nan
2.3258896 -0.46395329 0.63239568 nan
2.3257179 -0.46907416 0.63242626 nan
2.3255465 -0.47419509 0.6324569 nan
2.328377 -0.48012504 0.63212335 nan
2.3282051 -0.48525152 0.63215399 nan
2.3280334 -0.49037805 0.63218468 nan
2.3278615 -0.49550459 0.63221532 nan
2.3276899 -0.50063109 0.63224596 nan
2.327518 -0.50575769 0.63227659 nan
2.3293471 -0.51144576 0.63206458 nan
2.3321762 -0.51742411 0.63173127 nan
2.3069985 -0.51544595 0.63479483 nan
2.3108284 -0.52168095 0.63434005 nan
2.3106577 -0.52677763 0.63437057 nan
2.3244877 -0.53593636 0.63270301 nan
2.3103161 -0.53697097 0.63443148 nan
2.315145 -0.54353702 0.6338557 nan
2.3149741 -0.54864299 0.63388622 nan
2.3427968 -0.56208217 0.63052207 nan
2.3396249 -0.566342 0.6309166 nan
2.3164601 -0.56456375 0.6337353 nan
2.3142896 -0.56906712 0.63400835 nan
2.3161178 -0.57478321 0.63379639 nan
2.3159466 -0.57989287 0.63382697 nan
2.3057811 -0.58191454 0.63506925 nan
2.2856236 -0.58079243 0.63752288 nan
2.3064394 -0.59240937 0.63500899 nan
2.3062687 -0.59750235 0.63503945 nan
2.306098 -0.60259533 0.63506991 nan
2.3059273 -0.60768819 0.63510031 nan
2.3077545 -0.6134212 0.63488859 nan
2.2856066 -0.61143708 0.63758308 nan
2.2434831 -0.60289645 0.64269876 nan
2.2463126 -0.60885048 0.64236534 nan
2.2471447 -0.6141609 0.64227402 nan
2.3899467 0.26320672 0.61806816 nan
2.387753 0.25801528 0.6183489 nan
2.3845499 0.25283426 0.61875451 nan
2.384376 0.24764994 0.6187855 nan
2.4033854 0.24233818 0.61644459 nan
2.4042203 0.23710984 0.61635095 nan
2.3969789 0.23196128 0.61725587 nan
2.3968043 0.2267527 0.61728704 nan
2.4006672 0.22148745 0.61681902 nan
2.4035206 0.21622333 0.61647588 nan
2.4033456 0.21100169 0.61650705 nan
2.3940876 0.20595792 0.61766112 nan
2.3898766 0.20083958 0.61819124 nan
2.3876843 0.19568917 0.6184718 nan
2.3875103 0.19049552 0.61850286 nan
2.3873363 0.18530187 0.61853391 nan
2.3437798 0.18135892 0.62392724 nan
2.3516793 0.17599784 0.62296033 nan
2.3737001 0.17014751 0.62024796 nan
2.3826053 0.16466597 0.61915678 nan
